20.16275978 69.84104919 70.74566650 -0.029160 -0.570700 0.820641
19.96781921 69.56564331 70.58187103 -0.014417 -0.418100 0.908287
19.59723091 69.07186890 70.43826294 0.018919 -0.127984 0.991596
19.84604073 69.27528381 70.47785187 -0.005932 -0.236105 0.971709
20.27305984 69.26950073 70.48417664 -0.025406 -0.245587 0.969042
19.85939980 69.18708038 76.44203186 0.276660 -0.143008 -0.950267
19.52123070 70.76212311 72.12650299 0.023347 -0.962138 0.271561
19.72747993 70.65711212 71.81942749 0.008964 -0.925856 0.377770
20.20130920 70.65573120 71.81398010 -0.003840 -0.922805 0.385249
19.92186928 70.50100708 71.49169922 -0.003996 -0.872386 0.488802
19.65790939 70.31282806 71.19760895 0.001366 -0.802126 0.597153
20.13023949 70.31066895 71.20192719 -0.018027 -0.797367 0.603225
19.52486038 70.91200256 73.03893280 0.035353 -0.997374 0.063206
20.02448082 70.87564087 72.60202789 0.014539 -0.989755 0.142033
20.01465034 70.93444061 73.50910950 0.031455 -0.999463 -0.009132
19.60095024 70.68887329 74.90469360 0.163837 -0.922811 -0.348680
19.95944977 70.84496307 74.44579315 0.065772 -0.981797 -0.178182
19.72753906 70.86395264 74.23979950 0.077672 -0.983446 -0.163709
20.13581085 70.62861633 75.27680206 0.131956 -0.918138 -0.373645
19.86016083 70.19863892 75.85735321 0.206195 -0.742612 -0.637189
20.49889946 67.17162323 72.17064667 -0.003545 0.972520 0.232790
20.49152946 67.43092346 71.42946625 -0.006580 0.893617 0.448783
20.49679947 67.05288696 73.04453278 0.003128 0.997696 0.067764
20.99881935 67.09908295 72.59655762 -0.001104 0.990429 0.138020
20.48047066 67.04395294 73.98512268 0.017666 0.998650 -0.048841
20.99300003 67.03375244 73.51679230 0.005004 0.999767 0.021016
20.43622971 67.16770172 74.95694733 0.075446 0.973376 -0.216443
20.97999001 67.06755066 74.46569061 0.034077 0.994833 -0.095636
20.62268066 67.21248627 75.19249725 0.087115 0.953068 -0.289951
19.96491051 67.69377136 75.91020203 0.258898 0.687746 -0.678216
20.51783943 67.63256836 76.03543854 0.197884 0.786933 -0.584447
20.46526909 67.85064697 70.86557770 -0.018154 0.682852 0.730331
20.51592064 68.01199341 76.38993073 0.269504 0.466627 -0.842393
20.90917969 68.53613281 76.72183990 0.278474 0.185192 -0.942421
20.37284088 70.09060669 70.96192932 -0.038227 -0.695172 0.717826
20.63713074 69.83515930 70.76587677 -0.057928 -0.572215 0.818055
21.04763031 69.81410980 70.78379822 -0.090875 -0.564001 0.820759
20.90316963 69.52430725 70.61418915 -0.090440 -0.363110 0.927347
20.56957054 69.01730347 70.44512939 -0.052650 -0.099698 0.993624
20.69322014 69.26963806 70.50534821 -0.096782 -0.267119 0.958791
20.63717079 69.53072357 76.57569122 0.258961 -0.362545 -0.895265
20.54637909 69.21121979 76.63642883 0.289254 -0.171359 -0.941790
20.50421906 68.91996765 76.65824890 0.277440 -0.001212 -0.960742
20.87988091 69.34004974 76.70018768 0.261060 -0.233140 -0.936746
20.48774910 70.76172638 72.10835266 -0.011034 -0.957531 0.288118
20.65497017 70.64115906 71.79419708 -0.024973 -0.913472 0.406134
21.27419090 70.60402679 71.77411652 -0.050292 -0.893023 0.447191
20.96526909 70.61921692 71.76989746 -0.041372 -0.908854 0.415057
20.54170990 70.30372620 71.21388245 -0.049524 -0.790967 0.609851
21.02144051 70.87040710 72.58482361 -0.005713 -0.983762 0.179385
20.50967026 70.93079376 73.98542786 0.033336 -0.996844 -0.072048
21.01354980 70.95406342 73.51525879 0.012985 -0.999855 0.010987
20.53285027 70.79891968 74.89277649 0.083997 -0.969099 -0.231932
21.00688934 70.90190125 74.45800781 0.044087 -0.991400 -0.123218
21.07344055 70.72870636 75.31658936 0.109414 -0.933399 -0.341751
20.48752022 70.11578369 76.15209961 0.209712 -0.678844 -0.703699
20.53976059 70.33338165 75.91249084 0.181099 -0.780704 -0.598083
20.59808922 70.52565765 75.64457703 0.139894 -0.878303 -0.457179
21.49747086 67.17582703 72.17093658 -0.010684 0.972213 0.233853
21.48126984 67.44911194 71.43231201 -0.025531 0.882845 0.468970
21.93608093 67.69332123 71.13503265 -0.098372 0.726777 0.679793
21.49818039 67.05106354 73.04657745 0.001053 0.996878 0.078950
21.99864006 67.10180664 72.59709930 -0.005587 0.988880 0.148611
21.49502945 67.02934265 74.05960846 0.015162 0.999701 -0.019206
21.99754906 67.02822113 73.51891327 0.003032 0.999439 0.033348
21.71809959 67.03307343 74.27745056 0.015496 0.998982 -0.042356
21.95056915 67.03974915 74.46990204 0.015774 0.997949 -0.062043
21.19454002 67.55139160 76.14366150 0.149425 0.835891 -0.528165
21.19906998 67.90799713 76.52572632 0.222137 0.607381 -0.762721
21.82045937 67.87921143 76.67392731 0.222768 0.612222 -0.758656
21.42778969 67.88523865 70.88226318 -0.061660 0.655321 0.752830
21.34030914 68.49832153 70.54725647 -0.050653 0.248324 0.967352
21.44771004 68.71588898 70.51683807 -0.103862 0.074187 0.991821
21.56915092 68.99140930 70.53498840 -0.100367 -0.088830 0.990977
21.69681931 68.34056091 76.91713715 0.269906 0.399581 -0.876063
21.85111046 68.55094147 77.01967621 0.337424 0.172212 -0.925466
21.66522980 69.72702789 70.79557800 -0.112851 -0.578911 0.807544
21.70222092 69.25578308 70.58844757 -0.109105 -0.242598 0.963972
21.69223976 69.89811707 76.70728302 0.278881 -0.487653 -0.827296
21.76325035 70.08196259 76.57434082 0.213620 -0.684519 -0.696993
21.33596039 68.95097351 76.89438629 0.297200 0.031350 -0.954300
21.70097923 70.58212280 71.77808380 -0.053439 -0.881054 0.469987
21.51136017 70.72853851 72.08621979 -0.031882 -0.942440 0.332851
22.30842972 70.55644989 71.79995728 -0.054139 -0.862059 0.503909
22.00517082 70.56336212 71.77796936 -0.053499 -0.879298 0.473257
21.74337006 70.17407990 71.20139313 -0.089064 -0.731491 0.676009
22.20558929 70.14540100 71.23818207 -0.114111 -0.709859 0.695039
21.97846031 70.16702271 71.22651672 -0.098613 -0.716782 0.690289
21.52265930 70.93553162 73.04585266 -0.001069 -0.995047 0.099398
22.02971077 70.85978699 72.58847046 -0.008159 -0.977957 0.208646
21.50658035 70.95469666 73.99582672 0.019787 -0.998705 -0.046863
22.01442909 70.96217346 73.52066803 0.007075 -0.999545 0.029309
22.00363922 70.93424988 74.47817993 0.026929 -0.996368 -0.080787
21.81290054 70.67513275 75.70646667 0.101684 -0.928717 -0.356573
21.24070930 70.41294861 76.01976776 0.199409 -0.811337 -0.549517
22.49550056 67.18895721 72.17292786 -0.020722 0.964162 0.264505
22.46270943 67.50907898 71.43750000 -0.075741 0.816005 0.573061
22.93197060 67.86263275 71.13147736 -0.098425 0.656658 0.747738
22.49893951 67.05139160 73.04744720 -0.003201 0.995476 0.094960
22.99827957 67.10874939 72.59947205 -0.007924 0.986024 0.166413
22.49548912 67.01940155 74.00203705 0.006937 0.999952 -0.006937
22.99819946 67.02606964 73.52076721 0.001013 0.999371 0.035439
22.48520088 67.06398773 74.96350098 0.034415 0.993589 -0.107685
22.98951912 67.02474976 74.48948669 0.013297 0.999342 -0.033755
22.45347023 67.23573303 75.84796906 0.101169 0.949933 -0.295622
22.84758949 67.35735321 76.28640747 0.146181 0.904054 -0.401644
22.08448982 67.84851837 76.72128296 0.223730 0.655544 -0.721254
22.98590088 67.71192932 76.93123627 0.275970 0.690722 -0.668389
22.88105011 68.63358307 70.81157684 -0.226135 0.099803 0.968970
22.33263969 68.03922272 70.88617706 -0.154860 0.605910 0.780315
22.42601967 69.03727722 70.68318939 -0.240725 -0.166246 0.956250
22.16308975 68.99665833 77.20424652 0.386161 0.003849 -0.922424
22.42536926 68.28518677 77.15675354 0.321973 0.453903 -0.830846
22.98830986 68.12371063 77.27926636 0.295838 0.523648 -0.798920
21.90696907 69.45558167 76.98851013 0.355665 -0.337347 -0.871607
22.85841942 69.18482971 77.44139099 0.269752 -0.139527 -0.952768
22.53062057 70.70337677 72.10659790 -0.032635 -0.925532 0.377262
22.69659996 70.54582977 71.82264709 -0.075078 -0.845685 0.528376
23.39422989 70.53898621 71.86239624 -0.006800 -0.830983 0.556256
22.75795937 70.12026215 71.31044006 -0.104807 -0.674606 0.730700
22.52585983 70.93511963 73.05007172 -0.001083 -0.993261 0.115898
23.03830910 70.85368347 72.60072327 -0.003537 -0.972648 0.232257
22.50671959 70.96965027 74.00376129 0.015223 -0.999612 -0.023341
23.01552010 70.96743774 73.52348328 0.003062 -0.999120 0.041843
22.51579094 70.89631653 75.01290894 0.054241 -0.989039 -0.137334
23.00399017 70.95948792 74.49150848 0.019824 -0.998496 -0.051125
22.59448051 70.70323944 75.88510895 0.142675 -0.926693 -0.347683
22.73381042 70.79752350 75.61696625 0.089738 -0.966894 -0.238880
23.00037003 70.85231781 75.44879150 0.058547 -0.980955 -0.185199
22.71206093 70.86283112 75.29517365 0.065519 -0.982787 -0.172732
23.13520050 70.63082886 76.27710724 0.126169 -0.919229 -0.372960
22.85983086 70.20435333 76.85691833 0.195968 -0.745297 -0.637283
23.49578094 67.20501709 72.18354797 -0.018624 0.954777 0.296738
23.47203064 67.57462311 71.47318268 -0.070575 0.761920 0.643815
23.97347069 67.88244629 71.26322937 -0.090595 0.550759 0.829733
23.49930954 67.05345154 73.04931641 -0.003220 0.995000 0.099822
23.99888992 67.11505127 72.60640717 -0.005713 0.983762 0.179385
23.49662018 67.01439667 74.00528717 0.004936 0.999964 0.006910
23.99909973 67.02554321 73.52250671 0.001020 0.999036 0.043880
23.47998047 67.03926086 74.97846985 0.022308 0.997509 -0.066925
23.99287033 67.01528168 74.49794006 0.006992 0.999831 -0.016980
23.43604088 67.17574310 75.96192932 0.088909 0.970490 -0.224152
23.62364960 67.21914673 76.19790649 0.094393 0.958152 -0.270248
23.90167046 67.25758362 76.41670227 0.114308 0.940016 -0.321408
23.53480911 67.63067627 77.04267120 0.205532 0.764951 -0.610415
23.14466095 68.75573730 70.85743713 -0.196100 -0.012764 0.980501
23.53232002 68.00285339 77.39203644 0.265953 0.465802 -0.843977
23.91171074 68.53237915 77.72106934 0.279195 0.185672 -0.942112
24.02939987 69.38581085 71.08010864 -0.096516 -0.216847 0.971423
23.50439072 68.91542053 77.65651703 0.279674 0.001211 -0.960094
23.54598999 69.20913696 77.63555908 0.291899 -0.168562 -0.941478
23.87977028 69.33937836 77.69992065 0.260547 -0.229894 -0.937691
23.63676071 69.53038788 77.57552338 0.259238 -0.359971 -0.896224
23.56329918 70.70259094 72.15342712 -0.006475 -0.912990 0.407932
23.82037926 70.54643250 71.88789368 -0.020646 -0.829962 0.557437
24.30838013 70.55616760 71.91394043 -0.006816 -0.830139 0.557515
24.07365990 70.32721710 71.62287903 -0.029557 -0.724858 0.688264
23.90644073 70.07243347 71.39002228 -0.055233 -0.593404 0.803007
24.32349014 70.06884766 71.41084290 -0.034857 -0.581412 0.812862
23.52824974 70.93624115 73.05609894 0.001092 -0.992361 0.123363
24.04289055 70.86193848 72.63076019 0.001169 -0.975828 0.218539
23.50687981 70.97979736 74.00640106 0.008867 -0.999960 -0.000985
24.01601982 70.97062683 73.52551270 0.003073 -0.998835 0.048149
24.00272942 70.97585297 74.49623871 0.013297 -0.999342 -0.033755
23.53273010 70.80059052 75.89261627 0.081459 -0.968733 -0.234351
24.00452042 70.90503693 75.45519257 0.042077 -0.990518 -0.130780
24.07312965 70.72907257 76.31635284 0.106744 -0.933672 -0.341851
23.48682976 70.11646271 77.15222931 0.206738 -0.679283 -0.704154
23.53912926 70.33400726 76.91253662 0.181099 -0.780704 -0.598083
23.59753990 70.52626038 76.64450073 0.139540 -0.878960 -0.456024
24.49817085 67.21411133 72.20068359 -0.011213 0.948124 0.317703
24.49309921 67.59323120 71.53762817 -0.041132 0.721938 0.690734
25.00647926 67.88105774 71.34451294 -0.045901 0.538288 0.841510
24.49967957 67.05509949 73.05232239 -0.001071 0.995026 0.099610
24.99962044 67.11795807 72.61385345 -0.001144 0.982468 0.186429
24.49828911 67.01168060 74.00756073 0.002979 0.999885 0.014894
24.99962997 67.02526093 73.52388763 0.001018 0.999040 0.043791
24.49497032 67.02343750 75.05351257 0.017458 0.999201 -0.035942
24.99758911 67.00901031 74.50005341 0.002950 0.999991 -0.002950
24.71808052 67.02950287 75.27377319 0.017736 0.998426 -0.053208
24.71781921 67.13231659 76.22057343 0.051449 0.979921 -0.192634
24.94367027 67.15995026 76.40019226 0.058182 0.969295 -0.238919
24.19837952 67.55082703 77.14501953 0.149425 0.835891 -0.528165
24.75727081 67.47827911 77.16712189 0.129231 0.852345 -0.506761
24.20266914 67.90566254 77.52587891 0.222137 0.607381 -0.762721
24.82102966 67.87888336 77.67395782 0.222768 0.612222 -0.758656
24.69741058 68.33998871 77.91703796 0.269906 0.399581 -0.876063
24.85136032 68.55066681 78.01959991 0.328775 0.159532 -0.930836
25.05204964 69.37455750 71.14121246 -0.031616 -0.183843 0.982447
24.76324081 70.08196259 77.57431793 0.213620 -0.684519 -0.696993
24.69222069 69.89810944 77.70728302 0.278881 -0.487653 -0.827296
24.33625031 68.95021820 77.89417267 0.297888 0.033937 -0.953997
24.55401993 70.71465302 72.19204712 -0.001295 -0.910632 0.413217
24.80505943 70.56011963 71.92624664 -0.009556 -0.825872 0.563777
25.30471039 70.56098938 71.93087769 0.001358 -0.824239 0.566240
25.05443001 70.33743286 71.65865326 -0.009724 -0.709846 0.704290
24.56155014 69.80091095 71.26289368 -0.041326 -0.417262 0.907846
24.80813980 70.06954193 71.42867279 -0.023518 -0.571352 0.820368
25.30492973 70.07053375 71.43763733 -0.006820 -0.568771 0.822468
25.04357910 70.86353302 72.63720703 0.001169 -0.975828 0.218539
24.50684929 70.98502350 74.00804901 0.004955 -0.999928 0.010901
25.01618958 70.97206879 73.52645874 0.001026 -0.998629 0.052343
25.00259972 70.98487854 74.50077057 0.007006 -0.999795 -0.019015
24.49136925 70.84705353 75.98158264 0.051135 -0.981085 -0.186703
25.00132942 70.93718719 75.47534943 0.027147 -0.995754 -0.087956
24.29825020 70.79138184 76.18086243 0.074119 -0.966054 -0.247481
24.81285095 70.67517853 76.70642090 0.101684 -0.928717 -0.356573
24.24061966 70.41301727 77.01973724 0.196483 -0.811826 -0.549848
25.49961090 67.21682739 72.21257019 -0.003738 0.945644 0.325182
25.49785042 67.59005737 71.57772827 -0.018145 0.738364 0.674158
25.49991035 67.05568695 73.05465698 -0.001077 0.994066 0.108776
25.99994087 67.11863708 72.61765289 -0.001131 0.984919 0.173011
25.49925995 67.01016998 74.00837708 0.000997 0.999780 0.020933
25.99987030 67.02504730 73.52459717 0.001018 0.999127 0.041758
25.49550056 67.01187897 74.99466705 0.009061 0.999691 -0.023155
25.99831009 67.00595856 74.50169373 0.002938 0.999995 0.000979
25.48522949 67.06326294 75.96275330 0.034483 0.993320 -0.110122
25.45369911 67.23570251 76.84789276 0.101169 0.949933 -0.295622
25.95702934 67.10675812 76.42948151 0.045303 0.986216 -0.159142
25.84806061 67.35738373 77.28621674 0.146181 0.904054 -0.401644
25.08465958 67.84842682 77.72128296 0.223730 0.655544 -0.721254
25.98582077 67.71201324 77.93097687 0.275970 0.690722 -0.668389
25.51540947 68.20683289 71.21408081 -0.033744 0.291195 0.956069
25.54104042 68.99323273 71.10801697 -0.021482 -0.025574 0.999442
25.16309929 68.99662781 78.20423889 0.386161 0.003849 -0.922424
25.42539024 68.28515625 78.15670776 0.321973 0.453903 -0.830846
25.98826981 68.12377930 78.27906799 0.295091 0.522327 -0.800060
26.04492950 69.38730621 71.15943909 -0.005679 -0.173783 0.984768
24.90698051 69.45554352 77.98848724 0.355665 -0.337347 -0.871607
25.85841942 69.18486023 78.44135284 0.267285 -0.139626 -0.953448
25.55405045 70.71601868 72.19841766 -0.001295 -0.910632 0.413217
25.80495071 70.56112671 71.93264771 -0.004089 -0.824631 0.565656
26.30514908 70.56114960 71.93328094 0.004083 -0.823359 0.567506
26.05438042 70.33805847 71.66477966 -0.001384 -0.707106 0.707106
25.55463028 69.80883026 71.28797150 -0.009096 -0.406724 0.913506
25.80479050 70.07128906 71.44161987 -0.006830 -0.566921 0.823744
26.30504990 70.07147217 71.44319153 0.001358 -0.566240 0.824239
25.52939034 70.93807220 73.06140137 0.001090 -0.992658 0.120950
26.04381943 70.86363220 72.63800049 0.001169 -0.975828 0.218539
25.50691032 70.98787689 74.00910950 0.002985 -0.999852 0.016913
26.01622963 70.97286987 73.52664185 0.001028 -0.998513 0.054502
25.50089073 70.97802734 74.99581146 0.015527 -0.998888 -0.044510
26.00267982 70.99092102 74.50225830 0.004926 -0.999976 -0.004926
25.51520920 70.89698029 76.01228333 0.054348 -0.988671 -0.139917
26.00161934 70.96247864 75.48860168 0.019902 -0.998259 -0.055517
25.59445000 70.70326996 76.88507843 0.142675 -0.926693 -0.347683
25.73373985 70.79760742 76.61688995 0.089958 -0.966729 -0.239465
26.00020027 70.85252380 76.44860077 0.053146 -0.983793 -0.171249
25.71182060 70.86309052 76.29492188 0.065519 -0.982787 -0.172732
26.13520050 70.63083649 77.27710724 0.126169 -0.919229 -0.372960
25.85981941 70.20435333 77.85691071 0.195968 -0.745297 -0.637283
26.49999046 67.21723175 72.21661377 -0.001245 0.944882 0.327410
26.50066948 67.59176636 71.58727264 -0.001383 0.728889 0.684630
26.49999046 67.05577087 73.05557251 -0.001081 0.993536 0.113516
27.00001907 67.11869812 72.61859894 -0.001131 0.984919 0.173011
26.49967957 67.00952148 74.00875854 0.000999 0.999780 0.020974
26.99995995 67.02494049 73.52481079 0.001018 0.999040 0.043791
26.49663925 67.00660706 74.99777985 0.004955 0.999928 -0.010901
26.99917984 67.00450897 74.50260925 0.000981 0.999987 0.004907
26.48070908 67.03849030 75.97691345 0.022349 0.997204 -0.071305
26.44348907 67.17563629 76.96048737 0.086214 0.970847 -0.223657
26.96528053 67.06931305 76.46692657 0.032055 0.993718 -0.107220
26.90279961 67.25479889 77.39685822 0.105707 0.940658 -0.322473
26.63327026 67.21865845 77.19416046 0.091376 0.958802 -0.268979
26.53586960 67.63081360 78.04128265 0.201613 0.767977 -0.607917
26.50715065 68.20545959 71.22733307 -0.003682 0.300718 0.953706
26.52969933 68.99445343 71.11653900 -0.003002 -0.021016 0.999775
26.53263092 68.00321960 78.39114380 0.263092 0.466181 -0.844664
26.91374969 68.53251648 78.71925354 0.270575 0.190913 -0.943579
27.04380989 69.38748169 71.16166687 0.001131 -0.173011 0.984919
26.63662910 69.53045654 78.57523346 0.259238 -0.359971 -0.896224
26.54578018 69.20918274 78.63511658 0.291148 -0.168128 -0.941789
26.50415993 68.91545105 78.65596771 0.277440 0.001212 -0.960742
26.87882996 69.33911896 78.69889832 0.257273 -0.229460 -0.938700
26.55431938 70.71604919 72.19921112 -0.001294 -0.909655 0.415362
26.80524063 70.56114960 71.93348694 -0.004083 -0.823359 0.567506
27.30525970 70.56117249 71.93353271 0.004083 -0.823359 0.567506
27.05466080 70.33809662 71.66557312 -0.001381 -0.708486 0.705724
26.55421066 69.80985260 71.29258728 -0.001290 -0.403862 0.914819
26.80518913 70.07150269 71.44368744 -0.004089 -0.565656 0.824631
27.30524063 70.07153320 71.44380951 0.004080 -0.564387 0.825500
26.52942085 70.93820953 73.06147766 0.001089 -0.992394 0.123096
27.04385948 70.86364746 72.63806915 0.001168 -0.975327 0.220763
26.50691986 70.98948669 74.00921631 0.000997 -0.999780 0.020933
27.01623917 70.97319031 73.52664185 -0.001028 -0.998513 0.054502
27.00263977 70.99405670 74.50261688 0.002944 -0.999995 0.000981
26.50333023 70.94077301 75.97722626 0.031811 -0.994927 -0.095434
27.00032043 70.97885132 75.49327850 0.013349 -0.999109 -0.040046
26.53269958 70.80063629 76.89257813 0.081657 -0.968578 -0.234921
27.00432014 70.90527344 76.45497894 0.042077 -0.990518 -0.130780
27.07312965 70.72910309 77.31632233 0.106744 -0.933672 -0.341851
26.48682976 70.11647797 78.15219879 0.206738 -0.679283 -0.704154
26.53914070 70.33403015 77.91249847 0.178153 -0.781131 -0.598411
26.59753990 70.52628326 77.64449310 0.139540 -0.878960 -0.456024
27.50005913 67.21726227 72.21729279 -0.001261 0.934187 0.356781
27.50081062 67.59182739 71.58867645 -0.001380 0.730182 0.683251
27.50001907 67.05576324 73.05574036 -0.001081 0.993536 0.113516
28.00003052 67.11871338 72.61871338 -0.001131 0.984919 0.173011
27.49987984 67.00921631 74.00892639 0.000999 0.999736 0.022971
28.00000000 67.02488708 73.52485657 0.001018 0.999040 0.043791
27.49824905 67.00369263 74.99967194 0.002950 0.999984 -0.004916
27.99963951 67.00373840 74.50293732 0.000983 0.999976 0.006883
27.48743057 67.02227783 75.98989868 0.013429 0.998923 -0.044420
27.45277023 67.11004639 76.97608948 0.051906 0.988523 -0.141877
27.98063087 67.04113007 76.47949219 0.020139 0.997420 -0.068897
27.93716049 67.17121887 77.41159821 0.061234 0.966000 -0.251185
27.61788940 67.14948273 77.24334717 0.052029 0.976460 -0.209328
27.20158005 67.55541992 78.14327240 0.147256 0.810650 -0.566711
27.20418930 67.90770721 78.51959229 0.208983 0.611468 -0.763173
27.80307007 67.90516663 78.66290283 0.178762 0.640183 -0.747135
27.50690079 68.20551300 71.22889709 0.001225 0.300017 0.953933
27.52938080 68.99452972 71.11750793 -0.000997 -0.020933 0.999780
27.86185074 68.59472656 79.01492310 0.311458 0.173032 -0.934373
28.04369926 69.38768005 71.16150665 0.001131 -0.170816 0.985302
27.69595909 69.89172363 78.70807648 0.273948 -0.524415 -0.806190
27.76704979 70.07666016 78.57525635 0.206302 -0.680953 -0.702669
27.32728004 68.94541168 78.88598633 0.281628 0.031016 -0.959022
27.55434036 70.71605682 72.19927216 0.001294 -0.909655 0.415362
27.80522919 70.56121826 71.93347168 -0.004083 -0.823359 0.567506
28.30513000 70.56134796 71.93328094 0.004083 -0.823359 0.567506
28.05456924 70.33825684 71.66541290 0.001384 -0.707106 0.707106
27.55429077 69.80992889 71.29297638 0.001287 -0.402911 0.915238
27.80518913 70.07161713 71.44373322 -0.004080 -0.564387 0.825500
28.30500031 70.07186890 71.44331360 0.004089 -0.565656 0.824631
27.52943039 70.93826294 73.06149292 0.001089 -0.992394 0.123096
28.04384041 70.86369324 72.63806152 0.001169 -0.975828 0.218539
27.50691986 70.99015808 74.00933838 0.000999 -0.999780 0.020974
28.01623917 70.97332001 73.52667236 -0.001028 -0.998513 0.054502
27.50073051 70.99355316 74.99958038 0.004965 -0.999904 -0.012908
28.00264931 70.99549103 74.50314331 0.000983 -0.999987 0.004916
27.50029945 70.96367645 75.98734283 0.020060 -0.997722 -0.064403
28.00017929 70.98787689 75.49777222 0.007061 -0.999657 -0.025218
27.49135017 70.84707642 76.98152161 0.051135 -0.981085 -0.186703
28.00114059 70.93740845 76.47511292 0.027147 -0.995754 -0.087956
27.81292915 70.67517853 77.70603943 0.101684 -0.928717 -0.356573
27.24078941 70.41280365 78.01969910 0.196154 -0.810466 -0.551968
28.50007057 67.21730042 72.21730042 0.001261 0.934187 0.356781
28.50377083 67.59013367 71.58899689 0.006926 0.735582 0.677400
29.00547981 67.87402344 71.37798309 0.006751 0.527922 0.849266
28.50001907 67.05577087 73.05576324 -0.001081 0.993536 0.113516
29.00004005 67.11873627 72.61865234 -0.001131 0.984919 0.173011
28.49996948 67.00908661 74.00897980 0.001001 0.999686 0.025017
29.00001907 67.02488708 73.52484894 0.001018 0.999040 0.043791
28.49912071 67.00218201 75.00015259 0.000979 0.999999 -0.000979
28.99983025 67.00344086 74.50301361 0.000983 0.999976 0.006883
28.49275017 67.01230621 75.99270630 0.007061 0.999604 -0.027234
28.48254013 67.07469177 77.02115631 0.032181 0.993178 -0.112079
28.98867035 67.02586365 76.48146820 0.009278 0.998880 -0.046388
28.94677925 67.11920166 77.40897369 0.031720 0.980981 -0.191497
28.70892906 67.09528351 77.23047638 0.030837 0.987915 -0.151899
28.00064087 67.47675323 78.19412994 0.114011 0.852919 -0.509442
28.22592926 67.44920349 78.19814301 0.101238 0.859806 -0.500484
28.04317093 67.88765717 78.69902802 0.162578 0.645754 -0.746036
28.89343071 67.73081207 78.76233673 0.169200 0.745396 -0.644791
28.50974083 68.20709991 71.22696686 0.008604 0.296234 0.955077
28.52887917 68.99510956 71.11641693 0.003002 -0.021016 0.999775
28.11374092 69.10555267 79.14250183 0.353958 -0.050939 -0.933873
28.42223930 68.33914948 79.12505341 0.256014 0.464504 -0.847758
29.04220963 69.38912964 71.15830994 0.010272 -0.172344 0.984983
28.44005013 69.59767151 79.14823914 0.339792 -0.427480 -0.837736
28.26960945 69.39877319 79.14070892 0.362133 -0.252754 -0.897204
27.94054031 69.39669800 79.00673676 0.336269 -0.279977 -0.899186
28.55419922 70.71623993 72.19901276 0.001295 -0.910632 0.413217
28.80488014 70.56166077 71.93273163 -0.001358 -0.824239 0.566240
29.30438042 70.56228638 71.93153381 0.006826 -0.825890 0.563790
29.05380058 70.33921051 71.66356659 0.004159 -0.708486 0.705713
28.55382919 69.81053925 71.29190063 0.003871 -0.403860 0.914813
28.80454063 70.07244110 71.44216919 0.001358 -0.566240 0.824239
29.30352020 70.07357788 71.43937683 0.012322 -0.568170 0.822819
28.52942085 70.93829346 73.06147003 0.001089 -0.992394 0.123096
29.04371071 70.86383057 72.63783264 0.001169 -0.975828 0.218539
28.50692940 70.99046326 74.00940704 0.000999 -0.999736 0.022971
29.01622963 70.97338867 73.52665710 -0.001030 -0.998507 0.054614
28.50077057 70.99640656 75.00060272 0.002956 -0.999984 -0.004926
29.00266075 70.99627686 74.50322723 0.000983 -0.999976 0.006883
28.50017929 70.97884369 75.99497223 0.015464 -0.998987 -0.042269
29.00025940 70.99392700 75.49925995 0.004975 -0.999876 -0.014924
28.51520920 70.89701843 77.01193237 0.054348 -0.988671 -0.139917
29.00143051 70.96269226 76.48818970 0.019902 -0.998259 -0.055517
28.59502983 70.70319366 77.88275909 0.139824 -0.926160 -0.350252
28.73403931 70.79757690 77.61530304 0.089958 -0.966729 -0.239465
29.00041962 70.85246277 77.44693756 0.053146 -0.983793 -0.171249
28.71191978 70.86309052 77.29415894 0.063146 -0.982938 -0.172759
29.13810921 70.63065338 78.26611328 0.120634 -0.916541 -0.381314
28.86408043 70.20471191 78.83875275 0.178873 -0.741480 -0.646693
29.50012970 67.21750641 72.21671295 0.001242 0.945148 0.326641
29.50082970 67.58937073 71.58689117 0.004151 0.709863 0.704328
30.00054932 67.87727356 71.36733246 0.014908 0.513641 0.857876
29.50003052 67.05579376 73.05568695 -0.001081 0.993536 0.113516
30.00011063 67.11891174 72.61805725 -0.001131 0.984919 0.173011
29.50000000 67.00906372 74.00898743 0.001001 0.999686 0.025017
30.00003052 67.02488708 73.52480316 0.001018 0.999040 0.043791
29.49949074 67.00160980 75.00038147 0.000978 0.999999 0.000978
29.99991035 67.00332642 74.50306702 0.000983 0.999976 0.006883
29.49531937 67.00781250 75.99437714 0.002990 0.999816 -0.018940
29.48261070 67.04820251 76.96198273 0.018341 0.995814 -0.089548
29.99044037 67.01777649 76.48647308 0.007116 0.999341 -0.035582
29.46968079 67.18504333 77.84768677 0.065896 0.968544 -0.239960
29.96272087 67.08811951 77.42838287 0.028056 0.990945 -0.131303
29.86837006 67.28531647 78.26793671 0.082589 0.945180 -0.315934
29.90278053 67.62393188 78.91132355 0.158080 0.781369 -0.603716
29.70591927 67.84661102 79.10685730 0.182921 0.671736 -0.717851
29.54340935 67.64183044 78.83341217 0.178153 0.781131 -0.598411
29.50502968 68.21074677 71.21929932 0.011204 0.312471 0.949861
29.52420044 68.99799347 71.10788727 0.017252 -0.021312 0.999624
29.23612976 68.45733643 79.38864136 0.220897 0.317806 -0.922065
29.05444908 68.18150330 79.20897675 0.222037 0.519107 -0.825365
29.46697044 68.13052368 79.27265930 0.188696 0.526840 -0.828754
29.88282013 68.06994629 79.32626343 0.175442 0.535323 -0.826226
29.39429092 68.70059967 79.49136353 0.193129 0.187874 -0.963018
29.55850983 68.92131042 79.54460144 0.155845 0.005606 -0.987766
30.03297997 69.39385986 71.14111328 0.038665 -0.179267 0.983040
29.60737991 69.60069275 79.44648743 0.137621 -0.362818 -0.921642
29.58202934 69.30687714 79.52018738 0.145004 -0.170222 -0.974679
29.55352974 70.71707916 72.19756317 0.003890 -0.911599 0.411062
29.80345917 70.56350708 71.92907715 0.004077 -0.827627 0.561264
30.30183983 70.56594849 71.92485046 0.015050 -0.830480 0.556846
30.05104065 70.34284973 71.65535736 0.015339 -0.715341 0.698608
29.55106926 69.81321716 71.28473663 0.014327 -0.407667 0.913018
29.80159950 70.07568359 71.43374634 0.012358 -0.572589 0.819750
30.29841042 70.07967377 71.42342377 0.032050 -0.578300 0.815194
30.04313087 70.86454010 72.63684082 0.001167 -0.976433 0.215818
29.50691986 70.99060059 74.00940704 0.000999 -0.999736 0.022971
30.01615906 70.97348785 73.52657318 -0.001028 -0.998513 0.054502
30.00264931 70.99661255 74.50324249 0.000985 -0.999960 0.008867
30.00020981 70.99703979 75.49960327 0.002956 -0.999972 -0.006896
30.00008965 70.97891235 76.49259186 0.013349 -0.999109 -0.040046
30.00377083 70.90405273 77.45192719 0.039782 -0.990011 -0.135260
30.06245995 70.72534943 78.29155731 0.093208 -0.928023 -0.360673
29.49428940 70.11991882 79.09240723 0.149689 -0.669821 -0.727278
29.54740906 70.33467865 78.86604309 0.142566 -0.766853 -0.625788
29.60357094 70.52628326 78.61170197 0.122161 -0.869502 -0.478585
30.50062943 67.21824646 72.21333313 0.001242 0.945148 0.326641
30.50108910 67.59324646 71.57243347 0.015369 0.716736 0.697176
30.99678993 67.89234161 71.31887817 0.057668 0.544329 0.836888
30.50008011 67.05589294 73.05523682 0.001079 0.994040 0.109010
31.00044060 67.11916351 72.61547089 0.001146 0.981965 0.189060
30.50000954 67.00903320 74.00895691 0.001001 0.999686 0.025017
31.00004005 67.02490234 73.52452087 0.001018 0.999040 0.043791
30.49972916 67.00131226 75.00064087 0.000978 0.999999 0.000978
30.99995995 67.00322723 74.50312805 0.000983 0.999976 0.006883
30.49694061 67.00508881 75.99698639 0.002973 0.999913 -0.012883
30.48222923 67.03397369 76.97667694 0.013642 0.997988 -0.061915
30.99327087 67.01146698 76.49408722 0.007047 0.999707 -0.023155
30.44969940 67.15471649 77.95706177 0.059799 0.975096 -0.213569
30.96730042 67.06495667 77.46672821 0.022931 0.994786 -0.099369
30.63463974 67.19860840 78.18955994 0.055946 0.966009 -0.252381
30.88056946 67.24130249 78.38649750 0.071861 0.944651 -0.320110
30.51613998 67.59438324 79.03221893 0.132482 0.784474 -0.605846
30.48907089 68.21793365 71.18929291 0.050311 0.328955 0.943004
30.50037003 69.00572968 71.07285309 0.060317 -0.024339 0.997882
30.51475906 67.95065308 79.37799835 0.141289 0.572590 -0.807575
30.92180061 68.52771759 79.65940094 0.115259 0.174748 -0.977844
31.00292015 69.41322327 71.08857727 0.095417 -0.199509 0.975239
30.41831970 69.75921631 79.47512054 0.096031 -0.430052 -0.897682
30.66934013 70.13359070 79.26318359 0.091424 -0.593533 -0.799600
30.42045021 69.00427246 79.65086365 0.105257 -0.034347 -0.993852
30.95200920 69.44571686 79.63210297 0.122202 -0.227681 -0.966037
30.55120087 70.72044373 72.19274139 0.009084 -0.914894 0.403592
30.79896927 70.57093048 71.91838074 0.017812 -0.837151 0.546683
31.29433060 70.57940674 71.90930939 0.031637 -0.845947 0.532328
31.04314995 70.35743713 71.63353729 0.041191 -0.734343 0.677527
30.54117012 69.82235718 71.25810242 0.046935 -0.422419 0.905185
30.79317093 70.08807373 71.40717316 0.043557 -0.591533 0.805103
31.28647995 70.10507202 71.38437653 0.073260 -0.610499 0.788621
30.52887917 70.93891144 73.06076050 0.001087 -0.992690 0.120688
31.04121971 70.86707306 72.63408661 0.003495 -0.977506 0.210880
30.50688934 70.99069214 74.00936890 0.000999 -0.999736 0.022971
31.01589966 70.97377777 73.52629089 0.001028 -0.998513 0.054502
30.50077057 70.99865723 75.00080872 0.000978 -0.999999 0.000978
31.00263977 70.99672699 74.50325012 0.000985 -0.999960 0.008867
30.49999046 70.99417114 75.99861145 0.004975 -0.999876 -0.014924
31.00020981 70.99830627 75.50005341 0.000981 -0.999987 -0.004907
30.50024033 70.96224976 76.98680115 0.017982 -0.997472 -0.068755
30.99988937 70.98683167 76.49709320 0.005043 -0.999616 -0.027235
30.48074913 70.83778381 77.97556305 0.034336 -0.979174 -0.200097
31.00256920 70.92851257 77.47933197 0.020739 -0.994393 -0.103696
30.79475975 70.65765381 78.61824799 0.043848 -0.915489 -0.399945
31.00798035 70.72640228 78.45156097 0.042143 -0.946297 -0.320541
31.50181961 67.21710968 72.20355225 0.008721 0.948148 0.317710
31.51203918 67.59929657 71.52452087 0.049972 0.741015 0.669626
32.04399109 67.86898041 71.22080231 0.122799 0.613995 0.779699
31.50013924 67.05565643 73.05372620 0.001073 0.994789 0.101947
32.00027847 67.11686707 72.60961151 0.008013 0.983266 0.182001
31.49996948 67.00885773 74.00884247 0.001001 0.999686 0.025017
31.99986076 67.02416229 73.52372742 0.003067 0.998936 0.046010
31.49984932 67.00095367 75.00077820 0.000979 0.999995 0.002938
31.99982071 67.00258636 74.50306702 0.002956 0.999972 0.006896
31.49827003 67.00273895 75.99883270 0.002956 0.999972 -0.006896
31.48741913 67.02159119 76.98922729 0.011340 0.998953 -0.044329
31.99599075 67.00604248 76.49662781 0.004975 0.999876 -0.014924
31.45861053 67.11472321 78.00920868 0.045216 0.986640 -0.156517
31.97936058 67.04129028 77.47435760 0.018053 0.997149 -0.073273
31.68247986 67.14190674 78.21121979 0.041972 0.977343 -0.207460
31.92012024 67.17091370 78.36782074 0.030649 0.964818 -0.261126
31.19772911 67.53896332 79.09065247 0.082304 0.798497 -0.596346
31.81307030 67.48560333 79.06804657 0.043418 0.816547 -0.575644
31.19514084 67.89894104 79.43959808 0.083972 0.525181 -0.846837
31.81306076 67.92429352 79.49585724 0.048910 0.549190 -0.834265
31.45063019 69.02567291 70.98294067 0.130206 -0.039628 0.990695
31.15397072 68.34596252 79.64631653 0.097976 0.339560 -0.935468
31.94207001 68.61617279 79.76821899 0.043462 0.177372 -0.983184
31.71766090 68.76860046 79.77857208 0.067937 0.079074 -0.994551
32.00408936 69.44245148 70.96134186 0.172452 -0.272936 0.946449
31.98658943 69.39228821 79.75731659 0.067919 -0.170392 -0.983033
31.54462051 70.73052216 72.18240356 0.019390 -0.924236 0.381328
31.78726006 70.59131622 71.89806366 0.034247 -0.858918 0.510967
32.27753067 70.60635376 71.88506317 0.045206 -0.872617 0.486309
32.02563858 70.39530945 71.59616089 0.064598 -0.773746 0.630194
31.52252960 69.86184692 71.19766235 0.100019 -0.463469 0.880450
31.77824020 70.13102722 71.35478973 0.082818 -0.637842 0.765701
32.26919174 70.16459656 71.32259369 0.104747 -0.665366 0.739132
31.52767944 70.94029999 73.05937195 0.003256 -0.993227 0.116148
32.03672028 70.87254333 72.62880707 0.008101 -0.980191 0.197890
31.50676918 70.99082184 74.00926208 0.000999 -0.999736 0.022971
32.01528931 70.97442627 73.52564240 0.001026 -0.998629 0.052343
31.50077057 70.99886322 75.00086212 0.000978 -0.999999 0.000978
32.00259018 70.99680328 74.50319672 -0.000985 -0.999960 0.008867
31.49995995 70.99614716 75.99939728 0.000989 -0.999940 -0.010880
32.00017929 70.99851990 75.50002289 -0.000979 -0.999995 -0.002938
31.49996948 70.97339630 76.99311066 0.009369 -0.998316 -0.057255
31.99971008 70.98940277 76.49710083 -0.000999 -0.999780 -0.020974
31.51135063 70.87831879 77.96040344 0.026463 -0.986017 -0.164528
32.00146866 70.94473267 77.47934723 0.005347 -0.995648 -0.093041
32.03419876 70.79808044 78.40213776 0.025715 -0.963706 -0.265723
31.23615074 70.08944702 79.39559937 0.156248 -0.537196 -0.828859
31.31328964 70.31915283 79.21257782 0.136144 -0.749541 -0.647807
30.96319008 70.23136139 79.21533203 0.126814 -0.684795 -0.717617
32.49757004 67.20456696 72.18949890 0.026064 0.956918 0.289185
32.50658035 67.54194641 71.47844696 0.081444 0.827302 0.555821
32.49921036 67.05246735 73.05081177 0.007531 0.995167 0.097903
32.99589157 67.10642242 72.60018921 0.019459 0.985550 0.168265
32.49924088 67.00653839 74.00846863 0.007033 0.999708 0.023109
32.99784088 67.01795197 73.52197266 0.015556 0.998690 0.048742
32.49945068 66.99890900 75.00074005 0.004926 0.999984 0.002956
32.99800110 66.99664307 74.50274658 0.012960 0.999892 0.006978
32.49895859 67.00022125 75.99918365 0.004926 0.999976 -0.004926
32.49169159 67.01246643 76.99080658 0.007089 0.999544 -0.029369
32.99711990 67.00135040 76.49680328 0.006978 0.999892 -0.012960
32.46950912 67.07488251 77.93997955 0.016753 0.990684 -0.135144
32.98281097 67.02905273 77.47358704 0.009386 0.998061 -0.061531
32.46163940 67.30610657 78.80030823 0.022384 0.907230 -0.420038
32.95684052 67.14483643 78.36163330 0.015421 0.973874 -0.226565
31.99131966 67.68094635 79.30693054 0.029566 0.699723 -0.713802
32.22650146 67.46440887 79.05853271 0.026343 0.819403 -0.572612
32.70434952 67.45294189 79.05825043 0.012358 0.819750 -0.572589
32.22774887 67.93250275 79.51776886 0.031793 0.551546 -0.833539
32.70502090 67.93363190 79.53101349 0.015039 0.553691 -0.832587
32.46419144 68.18929291 79.66680908 0.027364 0.381787 -0.923845
32.01649857 68.63439178 70.90609741 0.194221 0.155634 0.968533
32.30844116 68.88140106 70.81896973 0.216021 -0.017707 0.976228
32.35628891 68.50874329 70.83960724 0.239701 0.239701 0.940791
32.27109909 69.24684143 70.85989380 0.197062 -0.176182 0.964431
33.06557083 69.08585358 70.65897369 0.194221 -0.155634 0.968533
33.01615906 68.77616882 70.63963318 0.214073 -0.008189 0.976783
33.00061035 68.53376007 70.66916656 0.185243 0.195753 0.962998
32.95737839 68.61675262 79.79802704 0.007748 0.136146 -0.990658
32.39360046 69.58394623 70.93257904 0.174708 -0.367882 0.913313
32.54257965 69.92082214 71.08486176 0.140766 -0.555657 0.819409
32.84209061 69.67191315 70.88455200 0.169722 -0.430834 0.886328
32.47908020 69.00527954 79.81925964 0.022971 -0.000999 -0.999736
32.95055008 69.42843628 79.76838684 -0.027742 -0.237615 -0.970963
32.53179169 70.74746704 72.16703796 0.024247 -0.937980 0.345840
32.76607132 70.62196350 71.87164307 0.039196 -0.887991 0.458187
33.25352859 70.63639069 71.85845947 0.038819 -0.900864 0.432361
32.99544144 70.44808197 71.55499268 0.063819 -0.823973 0.563024
32.75503922 70.21003723 71.29456329 0.101539 -0.710772 0.696056
33.23194885 70.24588013 71.26680756 0.085931 -0.741341 0.665605
33.02997971 70.87979889 72.62180328 0.008013 -0.983266 0.182001
32.50656128 70.99102783 74.00904083 0.000999 -0.999736 0.022971
33.01435852 70.97534943 73.52468872 0.001024 -0.998739 0.050193
33.00252151 70.99677277 74.50308228 -0.000983 -0.999976 0.006883
32.49988937 70.99550629 75.99865723 -0.002967 -0.999936 -0.010880
33.00014114 70.99774170 75.49948120 -0.000981 -0.999987 -0.004907
32.49924088 70.97302246 76.98979187 -0.009278 -0.998880 -0.046388
32.99948883 70.98516846 76.49405670 -0.007075 -0.999603 -0.027289
32.50331116 70.89272308 77.94451141 -0.007836 -0.988483 -0.151127
32.99774933 70.93376160 77.46929932 -0.022615 -0.996118 -0.085074
32.57469940 70.64600372 78.84725952 -0.030613 -0.901080 -0.432572
33.04428101 70.79786682 78.35989380 -0.040686 -0.965373 -0.257679
32.43186188 70.51557159 79.07840729 0.020916 -0.779472 -0.626088
32.56393814 70.08323669 79.50964355 -0.018081 -0.621705 -0.783043
32.41920853 69.85456085 79.63485718 0.035914 -0.416340 -0.908499
33.48186111 67.18306732 72.16153717 0.038067 0.966405 0.254188
33.44546127 67.46972656 71.42826843 0.082508 0.879615 0.468476
33.49398041 67.03852081 73.04396820 0.027308 0.995100 0.095031
33.98329926 67.08273315 72.57679749 0.045495 0.985717 0.162148
33.49369049 66.99098969 74.00714874 0.029844 0.999274 0.023670
33.98616028 66.98903656 73.51706696 0.055087 0.996961 0.055087
33.49523926 66.98457336 75.00023651 0.031203 0.999513 -0.001007
33.98577881 66.96447754 74.50134277 0.061405 0.998086 0.007285
33.49782181 66.99024963 75.99904633 0.025268 0.999619 -0.011118
33.49301147 67.00493622 76.99067688 0.013218 0.999478 -0.029486
33.99510956 66.98457336 76.49672699 0.038303 0.998982 -0.023810
33.47021866 67.06240082 77.93846130 0.009930 0.991868 -0.126880
33.98397064 67.01867676 77.47342682 0.017949 0.997762 -0.064406
33.44607925 67.28814697 78.79801941 0.009143 0.907807 -0.419289
33.95632172 67.13449097 78.36129761 0.010633 0.974693 -0.223293
32.95029068 67.66957855 79.32080078 0.012551 0.701451 -0.712607
33.19673920 67.44554138 79.06012726 0.015104 0.819719 -0.572567
33.69487000 67.44087219 79.06153107 0.004095 0.820314 -0.571899
33.19701004 67.93232727 79.53855133 0.012305 0.553711 -0.832618
33.69475937 67.92978668 79.54060364 0.001355 0.548745 -0.835989
33.44609833 68.19278717 79.68363190 0.003827 0.373806 -0.927499
33.44070053 67.92234039 70.87512207 0.155299 0.625719 0.764433
33.56296158 68.07273102 70.74421692 0.129977 0.527208 0.839736
33.68923950 68.24633026 70.63401031 0.116389 0.416477 0.901665
33.72692108 68.58233643 70.53063202 0.141896 0.167010 0.975691
33.77896118 68.87956238 70.50183105 0.144856 -0.033077 0.988900
33.95381165 68.61506653 79.78951263 -0.018234 0.082588 -0.996417
33.29158020 69.72971344 70.83704376 0.131586 -0.487302 0.863262
33.10908890 69.44319916 70.73663330 0.173627 -0.318084 0.932028
33.48194885 70.01904297 71.01265717 0.098088 -0.642696 0.759816
33.74639130 69.76538849 70.79474640 0.104781 -0.509551 0.854037
34.21171188 69.78838348 70.76161194 0.069231 -0.532659 0.843494
34.01015854 69.46135712 70.61331177 0.092631 -0.347700 0.933019
33.81269836 69.14292145 70.53740692 0.143792 -0.218926 0.965088
33.98120880 69.47379303 79.70437622 -0.036109 -0.277665 -0.959999
33.51620102 70.76403809 72.15106964 0.016260 -0.949306 0.313934
33.74198914 70.64755249 71.84734344 0.022380 -0.909687 0.414691
34.23221970 70.65442657 71.83931732 0.014289 -0.915795 0.401391
33.96057892 70.48396301 71.52088928 0.034312 -0.855044 0.517419
33.70692062 70.27158356 71.24221802 0.064555 -0.764616 0.641245
34.18590927 70.28916168 71.22393036 0.040876 -0.782275 0.621591
33.52283096 70.94510651 73.05438232 0.003219 -0.994785 0.101947
34.02386093 70.88468933 72.61583710 0.001129 -0.985368 0.170436
33.50630951 70.99117279 74.00875092 0.000997 -0.999780 0.020933
34.01359940 70.97563171 73.52382660 -0.001024 -0.998840 0.048149
33.50070190 70.99833679 75.00051117 -0.000978 -0.999999 0.000978
34.00241852 70.99639893 74.50290680 -0.000985 -0.999976 0.006896
33.49977875 70.99273682 75.99678040 -0.004984 -0.999876 -0.014953
33.99993134 70.99595642 75.49848175 -0.002961 -0.999972 -0.006910
33.99935913 70.97709656 76.48915100 -0.009168 -0.999322 -0.035654
34.01866913 70.90550995 77.44954681 -0.023518 -0.991100 -0.131027
33.27096176 70.82240295 78.19937134 -0.059325 -0.977044 -0.204610
34.04848099 70.68760681 78.43129730 -0.082452 -0.946235 -0.312794
33.80179977 70.64662933 78.63040924 -0.124936 -0.905432 -0.405690
34.03369141 70.22675323 79.22783661 -0.117276 -0.711078 -0.693264
33.75843811 70.40688324 79.08714294 -0.146925 -0.817732 -0.556532
33.68334961 70.21980286 79.31590271 -0.129930 -0.643674 -0.754189
34.33042908 70.27900696 79.12928772 -0.085268 -0.793430 -0.602660
33.39574814 69.83957672 79.61612701 -0.077971 -0.419950 -0.904192
34.47826004 67.15499115 72.06907654 0.079404 0.966707 0.243252
34.47158051 66.99279785 73.02950287 0.074657 0.991222 0.109115
34.94388962 67.01647186 72.54579163 0.112045 0.978854 0.171146
34.46405029 66.93269348 74.00434875 0.092659 0.995263 0.029433
34.99526978 66.89894867 73.49548340 0.132164 0.988308 0.076024
34.47042084 66.92505646 74.99891663 0.095565 0.995376 -0.009664
34.97967148 66.85913849 74.51471710 0.156536 0.987641 0.007883
34.48131180 66.94557190 75.99919891 0.076177 0.996733 -0.026823
34.48965073 66.97812653 76.99154663 0.049948 0.997891 -0.041446
35.02450943 66.91497040 76.50978088 0.114733 0.991706 -0.057935
34.47097015 67.04810333 77.93866730 0.025855 0.990368 -0.136021
34.97906876 66.98137665 77.47605133 0.069066 0.992959 -0.096239
34.44535065 67.27852631 78.79827881 0.011783 0.907321 -0.420274
34.95454025 67.11583710 78.36180878 0.032734 0.971102 -0.236411
33.94498062 67.66172028 79.32525635 0.006932 0.700124 -0.713988
34.19432831 67.43659973 79.06160736 0.012330 0.820647 -0.571302
34.69268036 67.43052673 79.06050873 0.009597 0.818485 -0.574448
34.19343948 67.92510223 79.53917694 0.006785 0.546835 -0.837213
34.69057846 67.91677856 79.53484344 -0.001354 0.545606 -0.838040
34.44321060 68.18074799 79.67719269 -0.003811 0.364588 -0.931161
34.55551147 68.18189240 70.52210236 0.161631 0.399072 0.902561
35.05120087 68.46250916 70.36801147 0.165360 0.204421 0.964815
34.95281982 68.57624817 79.77043152 -0.022703 0.089733 -0.995707
34.42594910 70.06366730 70.96298218 0.044040 -0.683325 0.728785
34.68545151 69.80428314 70.73860931 0.051980 -0.554923 0.830276
35.16344833 69.81826782 70.72707367 0.026444 -0.591519 0.805857
34.96406937 69.51506042 70.55291748 0.064381 -0.442446 0.894481
34.60606003 68.96510315 70.41441345 0.130503 -0.137821 0.981822
34.83332062 69.19563293 70.44016266 0.097127 -0.273251 0.957027
35.24840927 69.20005035 70.40368652 0.088009 -0.308689 0.947083
34.20304108 69.63105774 79.64652252 -0.037887 -0.374950 -0.926270
34.99134064 69.33075714 79.69735718 -0.057027 -0.285136 -0.956789
34.50405884 70.77021790 72.14147949 -0.001223 -0.955540 0.294859
34.72377014 70.65532684 71.83587646 -0.006432 -0.919790 0.392358
35.21203995 70.64814758 71.83689117 -0.022110 -0.922118 0.386275
34.93500137 70.49378204 71.50930786 -0.006682 -0.869945 0.493103
34.66907883 70.29889679 71.21404266 0.018007 -0.793678 0.608071
35.15126038 70.30158234 71.21411133 -0.006870 -0.803757 0.594918
34.52133942 70.94397736 73.05278015 -0.007558 -0.994471 0.104738
35.01911926 70.87789154 72.61374664 -0.019386 -0.986423 0.163073
34.50617981 70.99012756 74.00856781 -0.003002 -0.999775 0.021016
35.01362991 70.97103882 73.52361298 -0.011407 -0.998643 0.050814
34.50030899 70.99662018 75.00005341 -0.004916 -0.999984 -0.002950
35.00183105 70.99352264 74.50266266 -0.006924 -0.999952 0.006924
34.49874115 70.98706818 75.99371338 -0.011096 -0.999669 -0.023201
34.99816132 70.98995209 75.49667358 -0.013037 -0.999802 -0.015042
34.50048065 70.94136047 77.01229095 -0.022482 -0.996688 -0.078151
34.99642944 70.96257019 76.48037720 -0.021914 -0.998656 -0.046959
34.98992157 70.88052368 77.41502380 -0.049685 -0.987926 -0.146745
34.33324814 70.61959076 78.55944061 -0.062781 -0.920344 -0.386037
34.55998993 70.54087067 78.69801331 -0.085284 -0.879409 -0.468366
35.03054810 70.68269348 78.25919342 -0.063839 -0.941953 -0.329619
35.02024841 67.71878052 70.76719666 0.227425 0.694823 0.682275
35.29499054 67.74712372 70.63758850 0.263649 0.582553 0.768844
35.73382187 67.30198669 70.99241638 0.273457 0.842001 0.465032
35.96749878 67.29675293 70.86431885 0.295577 0.801378 0.520026
35.53075027 68.08151245 70.35888672 0.240681 0.348622 0.905834
35.40282059 67.03381348 72.06604767 0.186260 0.960362 0.207396
35.17475128 67.28455353 71.37447357 0.219224 0.907385 0.358599
35.39110184 66.87989807 73.06134033 0.166265 0.979115 0.117001
35.82450104 66.86669922 72.52631378 0.226553 0.964467 0.135932
35.71591949 66.74172211 73.80557251 0.215422 0.972511 0.088410
35.37651062 66.78312683 74.99749756 0.219280 0.975500 -0.017779
35.19543839 66.81928253 74.71621704 0.189060 0.981965 -0.001146
35.86632919 66.66210938 74.53698730 0.260528 0.965056 0.028132
35.73929977 66.73753357 75.80190277 0.238149 0.968805 -0.068577
35.21902847 66.82515717 75.28246307 0.186533 0.981938 -0.031675
35.47505188 66.88780212 76.98605347 0.138570 0.986571 -0.086458
35.31489182 66.88931274 76.70345306 0.136488 0.988083 -0.071161
35.64804840 66.83788300 76.72074890 0.174170 0.980469 -0.091348
35.92350006 66.76618958 76.57494354 0.232118 0.965662 -0.116700
35.45721054 66.99928284 77.94402313 0.083332 0.981865 -0.170287
35.43101120 67.25430298 78.79786682 0.038961 0.898795 -0.436634
35.93775177 67.05626678 78.37290192 0.097470 0.955210 -0.279415
34.93986893 67.64804840 79.32022858 0.006945 0.695890 -0.718114
35.18642044 67.41988373 79.05814362 0.023512 0.814628 -0.579506
35.66896820 67.40160370 79.05361176 0.026444 0.805857 -0.591519
35.18339157 67.90450287 79.52700806 0.001353 0.542465 -0.840077
35.67113876 67.88607788 79.51273346 -0.012228 0.536659 -0.843710
35.42697144 68.15059662 79.65650177 -0.019196 0.359599 -0.932909
36.04164124 68.42778778 70.17154694 0.237630 0.025331 0.971025
35.92885971 68.53344727 79.73101807 -0.061135 0.081142 -0.994826
35.38090134 70.08033752 70.95453644 -0.004150 -0.720800 0.693130
35.63592911 69.83370209 70.72882080 0.006904 -0.625522 0.780176
36.05376053 69.85455322 70.74990845 -0.029592 -0.672168 0.739807
35.92554092 69.56524658 70.53238678 0.028888 -0.532372 0.846017
35.51799011 68.90696716 70.29882050 0.124225 -0.153744 0.980271
35.73390961 69.22074890 70.36785889 0.081950 -0.369447 0.925631
36.22797012 69.26055908 70.34056091 0.093631 -0.451387 0.887402
35.94240189 69.87859344 79.29264069 -0.142787 -0.638784 -0.756020
35.46360016 68.91676331 79.75904083 -0.052019 -0.085223 -0.995003
35.94541931 69.25012970 79.64788055 -0.099408 -0.311479 -0.945039
35.48257065 70.75034332 72.14013672 -0.038950 -0.956161 0.290241
35.68758011 70.63130188 71.84053802 -0.048978 -0.922634 0.382555
36.09923935 70.60199738 71.83769989 -0.085419 -0.920623 0.380994
35.88753891 70.47093201 71.52757263 -0.059397 -0.877136 0.476554
35.62220001 70.29781342 71.22495270 -0.031999 -0.813880 0.580151
36.03548813 70.28865814 71.24743652 -0.066749 -0.825135 0.560978
36.04991150 70.83596802 72.61753845 -0.066814 -0.977920 0.198014
35.50516129 70.98164368 74.00879669 -0.019358 -0.999488 0.025471
36.01005936 70.94542694 73.52548218 -0.048807 -0.996756 0.063992
35.99591064 70.97812653 74.50286102 -0.031456 -0.999480 0.007103
35.49264145 70.96968842 75.98848724 -0.030206 -0.998879 -0.036455
35.98843002 70.96887207 75.49301910 -0.038458 -0.998866 -0.028064
