-0.07036193 0.06514728 -0.00019891 -0.601421 -0.696989 -0.390512
-0.06634782 0.03340410 -0.00019891 -0.012985 -0.999855 -0.010987
-0.07135952 0.06599894 -0.00019891 -0.607936 -0.651480 -0.453859
-0.03958705 0.03412106 -0.00019891 0.294379 -0.920473 -0.257043
-0.06500978 0.03340546 -0.00019891 -0.006896 -0.999972 -0.002956
-0.03824902 0.03466417 -0.00019891 0.406196 -0.857181 -0.316616
-0.06367174 0.03338394 -0.00019891 -0.008954 -0.999900 0.010944
-0.01148824 0.03860091 -0.00019891 0.045609 -0.998102 -0.041367
-0.03736141 0.03522406 -0.00019891 0.550532 -0.722470 -0.418272
-0.07169997 0.06631105 -0.00019891 -0.586951 -0.647496 -0.486042
-0.01015021 0.03866169 -0.00019891 0.034511 -0.998734 -0.036603
-0.03691097 0.03559927 -0.00019891 0.594469 -0.674398 -0.437942
-0.07283483 0.06733698 -0.00019891 -0.587130 -0.634235 -0.503014
0.05273759 0.06599012 -0.00019891 0.412409 0.428456 -0.803956
-0.03584268 0.03656209 -0.00019891 0.578123 -0.704018 -0.412472
0.05272290 0.06599894 -0.00019891 0.222283 0.531946 -0.817082
-0.00881217 0.03870252 -0.00019891 0.030204 -0.998801 -0.038536
-0.08201998 0.11015420 -0.00019891 -0.732231 0.247226 -0.634600
0.04470937 0.06578705 -0.00019891 -0.037774 0.588999 -0.807250
0.02597682 0.03650661 -0.00019891 0.228554 -0.852159 -0.470731
-0.00747413 0.03873767 -0.00019891 0.028348 -0.998481 -0.047247
0.02621678 0.03656209 -0.00019891 0.184432 -0.841191 -0.508313
0.04470937 0.09046157 -0.00019891 0.951277 0.190797 -0.242217
-0.06233370 0.03339365 -0.00019891 0.017150 -0.999738 0.015132
-0.03557294 0.03678086 -0.00019891 0.540202 -0.752366 -0.376999
0.04450929 0.09142166 -0.00019891 0.936666 0.230328 -0.263830
-0.06099566 0.03342936 -0.00019891 0.011009 -0.999855 0.013011
-0.08176743 0.11149224 -0.00019891 -0.656873 -0.152515 -0.738415
0.04419488 0.06599894 -0.00019891 0.528804 0.394557 -0.751459
0.04489240 0.08874559 -0.00019891 0.983108 0.050749 -0.175850
-0.08240428 0.11255795 -0.00019891 -0.633714 -0.392142 -0.666807
-0.05965763 0.03342556 -0.00019891 -0.010966 -0.999880 0.010966
-0.03423490 0.03776505 -0.00019891 0.521351 -0.745022 -0.416094
0.04362939 0.06733698 -0.00019891 0.725515 0.152979 -0.670988
-0.00613609 0.03876893 -0.00019891 0.024146 -0.998384 -0.051441
-0.08263215 0.11283028 -0.00019891 -0.633927 -0.479229 -0.607023
0.04604740 0.06596369 -0.00019891 -0.082163 0.598202 -0.797122
-0.00479805 0.03879320 -0.00019891 0.028289 -0.998487 -0.047148
0.04624979 0.06599894 -0.00019891 -0.097980 0.633212 -0.767751
0.04476999 0.09008363 -0.00019891 0.980831 0.103824 -0.164897
-0.06963648 0.04057621 -0.00019891 0.000000 0.000000 0.000000
-0.08592350 0.08874559 -0.00019891 -0.917816 0.068534 -0.391046
0.04414538 0.09275971 -0.00019891 0.919499 0.266209 -0.289232
-0.06902389 0.04142649 -0.00019891 -0.629426 0.514678 -0.582177
-0.00346001 0.03885843 -0.00019891 0.039241 -0.997986 -0.049846
-0.06859356 0.04191425 -0.00019891 -0.600758 0.556759 -0.573681
0.04738544 0.06619439 -0.00019891 -0.111012 0.661634 -0.741563
0.05006152 0.06657375 -0.00019891 -0.023816 0.648643 -0.760720
0.05139956 0.06650104 -0.00019891 0.132020 0.585930 -0.799535
0.04754174 0.04592836 -0.00019891 0.518898 -0.676751 -0.522257
0.02731487 0.03679971 -0.00019891 0.193227 -0.810946 -0.552295
-0.08587872 0.13156283 -0.00019891 -0.738352 0.279075 -0.613965
0.04872347 0.04688010 -0.00019891 0.544365 -0.652226 -0.527511
0.02865291 0.03711616 -0.00019891 0.205372 -0.826054 -0.524841
0.04916893 0.04726640 -0.00019891 0.558114 -0.645793 -0.521019
0.02999094 0.03746727 -0.00019891 0.230077 -0.839554 -0.492152
0.05006152 0.04804102 -0.00019891 0.575663 -0.629684 -0.521642
0.03132898 0.03786980 -0.00019891 0.250831 -0.832514 -0.493968
-0.08536936 0.13290086 -0.00019891 -0.711939 0.261626 -0.651686
-0.08374232 0.11405882 -0.00019891 -0.632110 -0.537715 -0.557942
-0.08508036 0.13360311 -0.00019891 -0.680572 0.294432 -0.670918
-0.08383211 0.11416832 -0.00019891 -0.673124 -0.459328 -0.579588
0.05524801 0.06198482 -0.00019891 0.696391 0.286561 -0.657969
-0.08481405 0.13423890 -0.00019891 -0.668975 0.273018 -0.691327
0.03143559 0.03790013 -0.00019891 0.217809 -0.830111 -0.513298
0.05475061 0.06332286 -0.00019891 0.617245 0.240302 -0.749175
-0.00212198 0.03891420 -0.00019891 0.005173 -0.998366 -0.056902
-0.08469640 0.11550636 -0.00019891 -0.650660 -0.402316 -0.644037
0.03266703 0.03820412 -0.00019891 0.225953 -0.813124 -0.536447
0.05063492 0.04860444 -0.00019891 0.606188 -0.572417 -0.552155
0.03400506 0.03863329 -0.00019891 0.256523 -0.840228 -0.477716
-0.08641839 0.11813188 -0.00019891 -0.640319 -0.453072 -0.620257
-0.03393169 0.03790013 -0.00019891 0.277620 -0.914257 -0.295062
0.05139956 0.04942121 -0.00019891 0.612802 -0.558781 -0.558781
-0.08645502 0.11818244 -0.00019891 -0.694003 -0.434376 -0.574175
0.03534310 0.03903472 -0.00019891 0.265050 -0.853369 -0.448899
0.05186236 0.04994248 -0.00019891 0.628574 -0.524093 -0.574648
-0.03289686 0.03810513 -0.00019891 0.115678 -0.986245 -0.118063
0.05273759 0.05105667 -0.00019891 0.656045 -0.488258 -0.575507
0.05410098 0.06466090 -0.00019891 0.568606 0.277175 -0.774507
0.03594455 0.03923817 -0.00019891 0.281451 -0.828805 -0.483599
-0.08730536 0.11952047 -0.00019891 -0.719549 -0.368790 -0.588424
0.05289140 0.05128052 -0.00019891 0.706773 -0.422077 -0.567735
0.05407563 0.06469744 -0.00019891 0.445421 0.403613 -0.799185
-0.08775643 0.12070302 -0.00019891 -0.805566 -0.264351 -0.530266
-0.08426607 0.13557693 -0.00019891 -0.650783 0.265723 -0.711247
0.05368854 0.05261856 -0.00019891 0.718553 -0.383119 -0.580433
-0.08779402 0.12085851 -0.00019891 -0.901631 -0.047171 -0.429926
-0.08374232 0.13676286 -0.00019891 -0.638634 0.283304 -0.715462
-0.03155882 0.03824111 -0.00019891 0.077483 -0.993801 -0.079729
-0.08576247 0.09008363 -0.00019891 -0.961772 0.069694 -0.264836
-0.08508036 0.11618835 -0.00019891 -0.659294 -0.373216 -0.652718
-0.06500978 0.06195198 -0.00019891 -0.394799 -0.905044 -0.158205
-0.06768586 0.04274730 -0.00019891 -0.564935 0.642509 -0.517717
-0.08367393 0.13691497 -0.00019891 -0.625285 0.318298 -0.712534
-0.08571329 0.09142166 -0.00019891 -0.989020 -0.014594 -0.147062
-0.06508827 0.06198482 -0.00019891 -0.361827 -0.920633 -0.146687
0.05407563 0.05347801 -0.00019891 0.779609 -0.310887 -0.543654
-0.08547156 0.11684439 -0.00019891 -0.628317 -0.434989 -0.644983
-0.06703210 0.04325229 -0.00019891 -0.523806 0.710048 -0.470594
0.05426015 0.05395659 -0.00019891 0.801931 -0.291468 -0.521491
0.04361176 0.06867501 -0.00019891 0.811342 0.055222 -0.581957
-0.08579160 0.09275971 -0.00019891 -0.989873 -0.042147 -0.135552
-0.03022078 0.03828312 -0.00019891 0.015373 -0.999238 -0.035870
-0.06634782 0.04373217 -0.00019891 -0.473696 0.773215 -0.421606
-0.08586776 0.09409774 -0.00019891 -0.977984 -0.049199 -0.202797
-0.06500978 0.04448550 -0.00019891 -0.454766 0.812197 -0.365409
-0.08298696 0.13825300 -0.00019891 -0.630472 0.311205 -0.711095
-0.02888274 0.03827805 -0.00019891 0.001005 -0.999632 -0.027126
-0.08790096 0.12219655 -0.00019891 -0.905852 0.011798 -0.423430
-0.02754471 0.03827325 -0.00019891 0.003008 -0.999681 -0.025067
0.04371652 0.07001305 -0.00019891 0.892460 -0.061502 -0.446914
-0.08590689 0.09543578 -0.00019891 -0.947871 0.011240 -0.318455
-0.08780511 0.12353459 -0.00019891 -0.916090 0.035589 -0.399389
-0.02620666 0.03828597 -0.00019891 0.004975 -0.999904 -0.012934
-0.08240428 0.13955617 -0.00019891 -0.710643 0.268677 -0.650230
-0.06481944 0.04459032 -0.00019891 -0.427050 0.830463 -0.357714
-0.02486863 0.03829879 -0.00019891 -0.000978 -0.999999 -0.000978
-0.08777703 0.12487262 -0.00019891 -0.918515 0.022149 -0.394766
-0.06367174 0.04514455 -0.00019891 -0.382295 0.855907 -0.348244
-0.08775643 0.12553519 -0.00019891 -0.874530 0.042426 -0.483113
-0.08239190 0.13959104 -0.00019891 -0.800302 0.251167 -0.544455
0.04388620 0.07135110 -0.00019891 0.920461 -0.131891 -0.367907
-0.08771782 0.12621066 -0.00019891 -0.817561 0.124762 -0.562165
-0.08578882 0.09677382 -0.00019891 -0.909825 0.115291 -0.398656
-0.02353059 0.03828958 -0.00019891 0.004945 -0.999964 0.006924
-0.06233370 0.04573101 -0.00019891 -0.373194 0.864642 -0.336335
0.04410492 0.07268913 -0.00019891 0.920631 -0.167260 -0.352792
-0.02219255 0.03830380 -0.00019891 0.012883 -0.999913 -0.002973
-0.08745261 0.12754869 -0.00019891 -0.815230 0.229621 -0.531672
-0.08558831 0.09811186 -0.00019891 -0.891125 0.159798 -0.424688
-0.02085451 0.03833747 -0.00019891 0.019129 -0.999756 -0.011075
-0.01951648 0.03835931 -0.00019891 0.027563 -0.999432 -0.019397
0.04439639 0.07402717 -0.00019891 0.930458 -0.195073 -0.310153
-0.08694537 0.12888674 -0.00019891 -0.809173 0.298117 -0.506325
-0.01817843 0.03839648 -0.00019891 0.017286 -0.999527 -0.025420
-0.08532279 0.09944990 -0.00019891 -0.880643 0.176713 -0.439591
-0.01684040 0.03840771 -0.00019891 0.009078 -0.999641 -0.025218
0.04467045 0.07536521 -0.00019891 0.935644 -0.187685 -0.298906
0.05473636 0.05529463 -0.00019891 0.798844 -0.274651 -0.535178
0.04470937 0.07559094 -0.00019891 0.951344 -0.128703 -0.279963
-0.05922055 0.04726640 -0.00019891 -0.563983 0.760011 -0.322965
0.05519313 0.05663267 -0.00019891 0.779228 -0.255562 -0.572270
0.04486242 0.07670325 -0.00019891 0.960257 -0.102100 -0.259773
-0.08508036 0.10064061 -0.00019891 -0.895756 0.165348 -0.412652
0.04497284 0.07804129 -0.00019891 0.963072 -0.038424 -0.266487
-0.08641839 0.13009962 -0.00019891 -0.755949 0.341553 -0.558464
-0.05831959 0.04801127 -0.00019891 -0.677385 0.667684 -0.308784
-0.08505223 0.10078794 -0.00019891 -0.910938 0.178196 -0.372073
-0.07959079 0.15029535 -0.00019891 -0.748687 0.380052 -0.543165
0.05541368 0.05734625 -0.00019891 0.791623 -0.241064 -0.561446
-0.08197103 0.14092909 -0.00019891 -0.834524 0.207495 -0.510408
-0.08479177 0.10212597 -0.00019891 -0.905009 0.191972 -0.379613
-0.08636487 0.13022478 -0.00019891 -0.745642 0.285803 -0.601942
0.05558668 0.05797071 -0.00019891 0.811295 -0.173096 -0.558424
0.04496688 0.07937932 -0.00019891 0.960571 0.038622 -0.275339
0.05583200 0.05930874 -0.00019891 0.809879 -0.049297 -0.584522
-0.08445738 0.10346401 -0.00019891 -0.881271 0.259727 -0.394846
0.04483658 0.08071736 -0.00019891 0.943704 0.122158 -0.307409
-0.08403704 0.10480205 -0.00019891 -0.870117 0.291055 -0.397724
0.05541368 0.06157422 -0.00019891 0.736110 0.275047 -0.618459
-0.03423490 0.12602246 -0.00019891 0.406139 0.879718 -0.247280
0.04470937 0.08135716 -0.00019891 0.927932 0.180548 -0.326106
-0.07883200 0.15163338 -0.00019891 -0.721336 0.512397 -0.465966
-0.03468172 0.12621066 -0.00019891 0.369898 0.897482 -0.240213
0.04455440 0.08205540 -0.00019891 0.930844 0.165083 -0.326003
-0.07839017 0.15222821 -0.00019891 -0.782815 0.526679 -0.331376
0.05569983 0.06064678 -0.00019891 0.778068 0.152002 -0.609512
0.04434943 0.08339344 -0.00019891 0.969926 -0.003562 -0.243372
-0.07784855 0.15297142 -0.00019891 -0.726913 0.641765 -0.244407
-0.03289686 0.12538368 -0.00019891 0.414073 0.874822 -0.251455
0.04451834 0.08473147 -0.00019891 0.972759 -0.153460 -0.173752
-0.08374232 0.10559969 -0.00019891 -0.847727 0.321981 -0.421530
0.04470937 0.08568338 -0.00019891 0.970932 -0.180371 -0.157345
-0.06367174 0.15276104 -0.00019891 0.469977 0.775706 -0.421191
-0.06405539 0.15297142 -0.00019891 0.538328 0.798859 -0.268379
-0.08351444 0.10614009 -0.00019891 -0.813291 0.385075 -0.436205
0.04872347 0.06641631 -0.00019891 -0.092266 0.663437 -0.742522
-0.06233370 0.15208170 -0.00019891 0.306716 0.737082 -0.602192
-0.03155882 0.12476002 -0.00019891 0.308634 0.914309 -0.262266
-0.08285496 0.10747813 -0.00019891 -0.838114 0.330546 -0.433940
-0.03181041 0.12487262 -0.00019891 0.395993 0.877810 -0.269516
-0.08166456 0.14226712 -0.00019891 -0.844304 0.167674 -0.508956
-0.05282239 0.13959104 -0.00019891 0.715095 0.076876 -0.694788
0.04478191 0.08606951 -0.00019891 0.984344 -0.109372 -0.138217
-0.03022078 0.12433544 -0.00019891 0.195384 0.946860 -0.255502
-0.05278005 0.14092909 -0.00019891 0.685911 -0.076857 -0.723615
-0.08247768 0.10881617 -0.00019891 -0.866351 0.252497 -0.430908
-0.08149888 0.14360517 -0.00019891 -0.836888 0.057668 -0.544329
0.04490156 0.08740755 -0.00019891 0.984239 -0.040961 -0.172037
-0.08240428 0.10902492 -0.00019891 -0.833153 0.247944 -0.494348
-0.02888274 0.12419128 -0.00019891 0.035962 0.961042 -0.274052
-0.06099566 0.15152228 -0.00019891 -0.001334 0.500299 -0.865851
-0.02754471 0.12425601 -0.00019891 -0.084117 0.953752 -0.288584
-0.08142242 0.14494321 -0.00019891 -0.813892 0.084991 -0.574766
0.00456822 0.03493831 -0.00019891 -0.405367 -0.843603 -0.352153
-0.03824902 0.12743646 -0.00019891 0.273193 0.934461 -0.228361
-0.05788999 0.04860444 -0.00019891 -0.858831 0.413284 -0.302665
-0.04263780 0.14761928 -0.00019891 0.460235 -0.882469 -0.097114
0.00414966 0.03522406 -0.00019891 -0.569655 -0.711656 -0.411143
-0.05733493 0.04994248 -0.00019891 -0.909238 0.288438 -0.300151
-0.08124748 0.14628124 -0.00019891 -0.808235 0.150890 -0.569200
-0.03691097 0.12703082 -0.00019891 0.297141 0.930854 -0.212646
-0.01550236 0.03840255 -0.00019891 0.013140 -0.999688 -0.021227
-0.05262682 0.14226712 -0.00019891 0.596841 -0.138419 -0.790330
-0.08106624 0.14683948 -0.00019891 -0.749883 0.284987 -0.597041
-0.01416432 0.03844518 -0.00019891 0.038458 -0.998866 -0.028064
-0.03557294 0.12656148 -0.00019891 0.336879 0.912319 -0.232779
-0.01282629 0.03852785 -0.00019891 0.059169 -0.997273 -0.044108
-0.05228645 0.14360517 -0.00019891 0.439473 -0.229486 -0.868447
-0.06133695 0.15163338 -0.00019891 0.279325 0.553915 -0.784319
-0.08071941 0.14761928 -0.00019891 -0.717142 0.311030 -0.623672
-0.05701797 0.05128052 -0.00019891 -0.942196 0.213822 -0.257966
-0.05162939 0.14434740 -0.00019891 0.370644 -0.516312 -0.772040
-0.02620666 0.12444096 -0.00019891 -0.160813 0.947309 -0.277030
-0.05980878 0.15163338 -0.00019891 -0.033432 0.434618 -0.899994
-0.02486863 0.12471699 -0.00019891 -0.194626 0.940003 -0.280206
-0.02411862 0.12487262 -0.00019891 -0.192980 0.945739 -0.261413
-0.02353059 0.12498371 -0.00019891 -0.163553 0.956054 -0.243335
-0.08011277 0.14895731 -0.00019891 -0.744251 0.307024 -0.593150
-0.02219255 0.12520036 -0.00019891 -0.177317 0.948848 -0.261238
-0.05037294 0.14494321 -0.00019891 0.265379 -0.688080 -0.675367
-0.07972820 0.14995131 -0.00019891 -0.753373 0.281918 -0.594097
-0.05849446 0.15297142 -0.00019891 -0.365934 0.335312 -0.868135
-0.05698155 0.05149792 -0.00019891 -0.939942 0.131186 -0.315117
-0.02085451 0.12547520 -0.00019891 -0.192666 0.938380 -0.286920
-0.05831959 0.15321949 -0.00019891 -0.469289 0.309197 -0.827142
-0.01951648 0.12576374 -0.00019891 -0.207273 0.929203 -0.305974
-0.05965763 0.15177229 -0.00019891 -0.351080 0.348014 -0.869269
-0.05682977 0.05261856 -0.00019891 -0.938944 0.108805 -0.326414
-0.01817843 0.12606838 -0.00019891 -0.221276 0.920795 -0.321207
-0.05029136 0.14496689 -0.00019891 0.149755 -0.718521 -0.679191
-0.05771355 0.15430948 -0.00019891 -0.575130 0.294734 -0.763123
-0.01764795 0.12621066 -0.00019891 -0.251363 0.911011 -0.326918
-0.05669776 0.05395659 -0.00019891 -0.951751 0.078989 -0.296532
-0.04576034 0.16902789 -0.00019891 -0.468832 0.826337 0.312032
-0.04895332 0.14523832 -0.00019891 0.126002 -0.778248 -0.615186
-0.05706601 0.15564752 -0.00019891 -0.630276 0.304660 -0.714097
-0.04895332 0.13117898 -0.00019891 0.755680 0.368902 -0.541164
-0.05663320 0.05529463 -0.00019891 -0.957110 0.003667 -0.289700
-0.04913109 0.13156283 -0.00019891 0.781072 0.328788 -0.530872
-0.05698155 0.15582049 -0.00019891 -0.658045 0.347800 -0.667842
-0.04493921 0.16947836 -0.00019891 -0.418440 0.828985 0.371069
-0.05667437 0.05663267 -0.00019891 -0.943523 -0.119111 -0.309154
-0.01684040 0.12644905 -0.00019891 -0.278766 0.901197 -0.331865
-0.04360117 0.17013487 -0.00019891 -0.388799 0.811198 0.436799
-0.04761528 0.14551795 -0.00019891 0.217706 -0.860315 -0.460937
-0.04627724 0.12867889 -0.00019891 0.248719 0.928078 -0.277144
-0.04681155 0.12888674 -0.00019891 0.372965 0.867182 -0.329989
-0.05698155 0.05807943 -0.00019891 -0.838947 -0.406144 -0.362237
-0.05641565 0.15698555 -0.00019891 -0.679719 0.326071 -0.657008
-0.05765489 0.05930874 -0.00019891 -0.722506 -0.602359 -0.339334
-0.05573409 0.15832359 -0.00019891 -0.715372 0.350353 -0.604563
-0.04493921 0.12838349 -0.00019891 0.190671 0.950650 -0.244762
-0.04969680 0.13290086 -0.00019891 0.803245 0.356111 -0.477476
-0.05693960 0.05797071 -0.00019891 -0.916476 -0.195268 -0.349202
-0.05564351 0.15858203 -0.00019891 -0.753709 0.327630 -0.569720
-0.04627724 0.14592101 -0.00019891 0.306222 -0.891777 -0.333109
-0.05524980 0.15966162 -0.00019891 -0.760507 0.376182 -0.529261
-0.05029136 0.13413058 -0.00019891 0.767167 0.389284 -0.509816
-0.05446490 0.16099966 -0.00019891 -0.798807 0.481846 -0.360184
-0.05034790 0.13423890 -0.00019891 0.730118 0.407086 -0.548825
-0.04539739 0.14628124 -0.00019891 0.366628 -0.882624 -0.294208
-0.04761528 0.12937047 -0.00019891 0.566283 0.686555 -0.456033
-0.04308700 0.17036593 -0.00019891 -0.372020 0.824777 0.425845
-0.04842209 0.13022478 -0.00019891 0.694074 0.533517 -0.483343
-0.05430547 0.16122574 -0.00019891 -0.747122 0.596737 -0.292769
-0.05965763 0.06032285 -0.00019891 -0.236810 -0.928807 -0.285023
-0.04493921 0.14648491 -0.00019891 0.408116 -0.874965 -0.260532
-0.04226313 0.17071801 -0.00019891 -0.353876 0.820421 0.449089
-0.05831959 0.05987070 -0.00019891 -0.399561 -0.859287 -0.319340
-0.03868686 0.12754869 -0.00019891 0.217876 0.951347 -0.217876
-0.05162939 0.13660824 -0.00019891 0.695767 0.394984 -0.599913
-0.05346163 0.16233769 -0.00019891 -0.741429 0.600509 -0.299454
-0.05179476 0.13691497 -0.00019891 0.666464 0.340565 -0.663205
-0.04092509 0.17126423 -0.00019891 -0.268750 0.787390 0.554788
-0.05296743 0.16289830 -0.00019891 -0.707216 0.672870 -0.217005
-0.05109931 0.13557693 -0.00019891 0.744655 0.394422 -0.538443
-0.03766038 0.16367573 -0.00019891 0.706734 -0.032445 0.706734
-0.05218855 0.16367573 -0.00019891 -0.692358 0.704478 -0.156046
0.03668113 0.03947826 -0.00019891 0.302039 -0.804909 -0.510777
-0.04360117 0.14711553 -0.00019891 0.423279 -0.888740 -0.176002
-0.05247270 0.13825300 -0.00019891 0.685279 0.287271 -0.669230
-0.03726049 0.16501379 -0.00019891 0.784436 -0.286834 0.549897
-0.05162939 0.16420668 -0.00019891 -0.700929 0.706807 -0.095514
0.03801918 0.04001490 -0.00019891 0.358807 -0.811701 -0.460868
-0.03691097 0.16582939 -0.00019891 0.793728 -0.327393 0.512649
0.03913641 0.04057621 -0.00019891 0.408982 -0.767452 -0.493711
-0.05074095 0.16501379 -0.00019891 -0.648597 0.760666 0.026616
-0.03666238 0.16635182 -0.00019891 0.806184 -0.349612 0.477325
-0.05029136 0.16541409 -0.00019891 -0.680088 0.729391 0.073954
0.03935722 0.04070403 -0.00019891 0.498564 -0.701991 -0.508569
-0.04226313 0.14781561 -0.00019891 0.456755 -0.887449 -0.061724
-0.03610031 0.16768986 -0.00019891 0.793195 -0.299229 0.530380
-0.03969689 0.17170396 -0.00019891 -0.293781 0.776536 0.557391
-0.04928208 0.16635182 -0.00019891 -0.673163 0.729632 0.120367
-0.03563733 0.16902789 -0.00019891 0.762317 -0.215809 0.610164
-0.03958705 0.17174193 -0.00019891 -0.250337 0.803878 0.539547
0.04069525 0.04166759 -0.00019891 0.514872 -0.711490 -0.478214
0.03266703 0.11538815 -0.00019891 0.724845 0.601605 -0.335666
-0.03824902 0.17215213 -0.00019891 -0.219057 0.753495 0.619886
0.04098515 0.04191425 -0.00019891 0.523693 -0.694354 -0.493577
-0.03557294 0.16920555 -0.00019891 0.728426 -0.136674 0.671354
-0.00346001 0.12948814 -0.00019891 -0.102801 0.941226 -0.321753
0.04203328 0.04270951 -0.00019891 0.502234 -0.699123 -0.508908
-0.00212198 0.12962475 -0.00019891 -0.078119 0.936107 -0.342930
-0.03525371 0.17036593 -0.00019891 0.730384 -0.176088 0.659949
0.04283988 0.04325229 -0.00019891 0.492992 -0.700216 -0.516388
0.03256345 0.11550636 -0.00019891 0.682906 0.653708 -0.326043
-0.03520225 0.17170396 -0.00019891 0.599055 0.100571 0.794367
0.04337133 0.04363009 -0.00019891 0.402571 -0.764396 -0.503621
-0.00078394 0.12972990 -0.00019891 -0.067740 0.928436 -0.365264
-0.04895332 0.16664591 -0.00019891 -0.648985 0.743217 0.162626
0.04470937 0.04423106 -0.00019891 0.384909 -0.768194 -0.511588
0.03132898 0.11677070 -0.00019891 0.675778 0.662814 -0.322494
-0.03691097 0.17244884 -0.00019891 -0.006877 0.612020 0.790812
0.00055410 0.12981635 -0.00019891 -0.054390 0.921985 -0.383387
0.04539683 0.04459032 -0.00019891 0.401872 -0.769576 -0.496238
0.03124918 0.11684439 -0.00019891 0.640274 0.698628 -0.319326
-0.03387923 0.15297142 -0.00019891 0.548825 -0.730118 0.407086
-0.03557294 0.17226446 -0.00019891 0.292295 0.408601 0.864643
0.02999094 0.11795430 -0.00019891 0.628592 0.718621 -0.297416
-0.03289686 0.15381911 -0.00019891 0.534661 -0.675449 0.507844
0.02970552 0.11818244 -0.00019891 0.594965 0.745711 -0.299888
0.00189214 0.12989125 -0.00019891 -0.024804 0.920341 -0.390329
-0.03233415 0.15430948 -0.00019891 0.517346 -0.591494 0.618456
0.02865291 0.11900307 -0.00019891 0.588291 0.759546 -0.277496
0.00323018 0.12990639 -0.00019891 0.006423 0.921108 -0.389255
0.02797298 0.11952047 -0.00019891 0.577784 0.767741 -0.277020
-0.03155882 0.15497956 -0.00019891 0.496044 -0.630564 0.596934
0.00456822 0.12987433 -0.00019891 0.024640 0.924666 -0.379982
0.02731487 0.12000071 -0.00019891 0.570333 0.775716 -0.270158
0.02614166 0.12085851 -0.00019891 0.570623 0.778122 -0.262518
0.04604740 0.04493101 -0.00019891 0.448782 -0.730306 -0.515023
-0.03066444 0.15564752 -0.00019891 0.453971 -0.614787 0.644940
-0.01550236 0.12686983 -0.00019891 -0.288496 0.900995 -0.324003
0.04738544 0.04581490 -0.00019891 0.468315 -0.729777 -0.498102
0.00590625 0.12980703 -0.00019891 0.067703 0.930587 -0.359756
-0.01416432 0.12730801 -0.00019891 -0.283546 0.906464 -0.312929
-0.03022078 0.15597212 -0.00019891 0.449051 -0.599290 0.662725
-0.04774014 0.16768986 -0.00019891 -0.640838 0.752419 0.152293
0.00724429 0.12966390 -0.00019891 0.115878 0.928387 -0.353087
0.02597682 0.12098508 -0.00019891 0.592085 0.762605 -0.260517
-0.02888274 0.15697140 -0.00019891 0.442961 -0.610116 0.656920
-0.01333259 0.12754869 -0.00019891 -0.261569 0.917658 -0.299142
0.00858233 0.12945497 -0.00019891 0.165394 0.914613 -0.368955
-0.02886387 0.15698555 -0.00019891 0.421252 -0.540193 0.728518
-0.01282629 0.12768778 -0.00019891 -0.239237 0.930051 -0.278874
0.00992037 0.12918615 -0.00019891 0.202973 0.911220 -0.358442
-0.02754471 0.15813982 -0.00019891 0.437753 -0.486938 0.755820
-0.01148824 0.12802219 -0.00019891 -0.226954 0.931778 -0.283340
0.01125841 0.12887107 -0.00019891 0.263601 0.878168 -0.399167
-0.04761528 0.16779003 -0.00019891 -0.575657 0.801111 0.163829
0.01119664 0.12888674 -0.00019891 0.214890 0.899028 -0.381539
-0.03423490 0.16087559 -0.00019891 0.107408 0.902503 0.417076
-0.04627724 0.16873944 -0.00019891 -0.543098 0.801420 0.250541
-0.01015021 0.12833083 -0.00019891 -0.215428 0.938156 -0.271023
-0.03493470 0.16099966 -0.00019891 0.167478 0.792127 0.586929
-0.00881217 0.12864232 -0.00019891 -0.210732 0.936432 -0.280511
0.01794860 0.12618664 -0.00019891 0.415165 0.809491 -0.415165
-0.03289686 0.16075584 -0.00019891 0.043727 0.918266 0.393543
0.01790176 0.12621066 -0.00019891 0.407678 0.810559 -0.420468
-0.00768603 0.12888674 -0.00019891 -0.197583 0.940935 -0.274958
-0.03691097 0.16172335 -0.00019891 0.386090 0.583242 0.714677
-0.03750037 0.16233769 -0.00019891 0.571894 0.327027 0.752323
0.02463879 0.12201828 -0.00019891 0.574268 0.765161 -0.291111
-0.00747413 0.12892932 -0.00019891 -0.161877 0.953868 -0.252849
-0.03557294 0.16116762 -0.00019891 0.268498 0.640264 0.719702
-0.00613609 0.12915024 -0.00019891 -0.144938 0.953401 -0.264612
0.01661056 0.12684226 -0.00019891 0.388532 0.838412 -0.382240
-0.04092509 0.14848624 -0.00019891 0.458286 -0.888514 -0.022714
-0.00479805 0.12932333 -0.00019891 -0.118596 0.947435 -0.297156
-0.03155882 0.16076213 -0.00019891 0.021985 0.927268 0.373752
-0.00078394 0.03885024 -0.00019891 -0.134823 -0.982628 -0.127535
-0.04002513 0.14895731 -0.00019891 0.456142 -0.889544 0.025416
-0.03022078 0.16073745 -0.00019891 0.128743 0.863587 0.487486
-0.03958705 0.14917026 -0.00019891 0.486239 -0.873052 0.036774
-0.02888274 0.16056645 -0.00019891 0.159944 0.820648 0.548593
0.00189214 0.03763519 -0.00019891 -0.647869 -0.614387 -0.450327
-0.03824902 0.14994359 -0.00019891 0.508524 -0.856983 0.083574
-0.02754471 0.16007552 -0.00019891 0.279382 0.729586 0.624219
0.00159739 0.03790013 -0.00019891 -0.560801 -0.716304 -0.415224
-0.03763843 0.15029535 -0.00019891 0.527547 -0.826844 0.194996
-0.02740023 0.15832359 -0.00019891 0.483708 -0.137995 0.864283
0.00323018 0.03616320 -0.00019891 -0.646890 -0.613459 -0.452990
0.00287036 0.03656209 -0.00019891 -0.656634 -0.603167 -0.452793
-0.03691097 0.15072080 -0.00019891 0.514470 -0.824688 0.234967
-0.02708159 0.15966162 -0.00019891 0.495720 0.230319 0.837386
-0.03557294 0.15163213 -0.00019891 0.553364 -0.811095 0.189508
0.00055410 0.03846212 -0.00019891 -0.341001 -0.909821 -0.236524
-0.03557122 0.15163338 -0.00019891 0.576473 -0.786661 0.221007
-0.03423490 0.15267688 -0.00019891 0.553651 -0.734368 0.392649
0.00590625 0.03437808 -0.00019891 -0.259295 -0.934864 -0.242476
0.00724429 0.03419353 -0.00019891 -0.079424 -0.991076 -0.107050
0.00858233 0.03411721 -0.00019891 -0.024242 -0.998144 -0.055862
-0.07705212 0.15378204 -0.00019891 -0.736761 0.665318 -0.120561
0.00992037 0.03408915 -0.00019891 -0.003044 -0.999291 -0.037537
-0.07647891 0.15430948 -0.00019891 -0.635555 0.771844 0.018079
0.01125841 0.03410398 -0.00019891 0.005113 -0.999020 -0.043969
-0.07571408 0.15496355 -0.00019891 -0.607935 0.781204 0.141901
0.01259644 0.03411093 -0.00019891 0.011251 -0.999296 -0.035799
0.01393449 0.03414053 -0.00019891 0.029963 -0.999102 -0.029963
-0.07471802 0.15564752 -0.00019891 -0.561446 0.791623 0.241064
0.01527252 0.03417093 -0.00019891 0.047247 -0.998481 -0.028348
-0.07437605 0.15586346 -0.00019891 -0.407522 0.865413 0.291524
0.01661056 0.03427985 -0.00019891 0.083633 -0.995999 -0.031498
-0.07303801 0.15643945 -0.00019891 -0.257073 0.913554 0.315169
0.01794860 0.03443212 -0.00019891 0.127788 -0.988302 -0.083238
0.04371010 0.09409774 -0.00019891 0.902627 0.299891 -0.308755
-0.07169997 0.15663195 -0.00019891 -0.028988 0.949038 0.313825
0.01928664 0.03463208 -0.00019891 0.127023 -0.986508 -0.103281
-0.07036193 0.15652132 -0.00019891 0.209778 0.930625 0.299884
0.02062467 0.03479115 -0.00019891 0.186626 -0.969168 -0.160884
0.04337133 0.09509042 -0.00019891 0.896137 0.301684 -0.325463
0.04325487 0.09543578 -0.00019891 0.896956 0.268346 -0.351370
0.02196272 0.03509900 -0.00019891 0.197247 -0.959758 -0.199894
-0.06768586 0.15523684 -0.00019891 0.554305 0.823414 0.121391
0.04286592 0.09677382 -0.00019891 0.918860 0.248768 -0.306287
0.02235316 0.03522406 -0.00019891 0.315231 -0.872597 -0.373100
-0.06835854 0.15564752 -0.00019891 0.477406 0.858142 0.188880
0.04254860 0.09811186 -0.00019891 0.928673 0.233940 -0.287818
-0.06500978 0.15350854 -0.00019891 0.498528 0.850604 -0.167162
0.04218367 0.09944990 -0.00019891 0.923812 0.267834 -0.273563
0.02330075 0.03563933 -0.00019891 0.338460 -0.787601 -0.514908
-0.06625366 0.15430948 -0.00019891 0.502845 0.861420 -0.071435
0.02463879 0.03614078 -0.00019891 0.262410 -0.845543 -0.464972
0.03668113 0.10951702 -0.00019891 0.000000 0.000000 0.000000
-0.06634782 0.15437239 -0.00019891 0.510038 0.859228 0.039868
0.04203328 0.09989100 -0.00019891 0.901279 0.306346 -0.306346
0.04170926 0.10078794 -0.00019891 0.881334 0.337114 -0.331067
-0.06902389 0.15601069 -0.00019891 0.364698 0.896241 0.252483
0.04117875 0.10212597 -0.00019891 0.866056 0.378612 -0.326496
0.04069525 0.10310281 -0.00019891 0.808163 0.433688 -0.398481
0.03713748 0.10881617 -0.00019891 0.826843 0.458308 -0.326013
-0.08106624 0.07592846 -0.00019891 -0.795095 -0.559511 -0.234034
-0.08159105 0.07670325 -0.00019891 -0.829660 -0.456392 -0.321513
-0.08223678 0.07804129 -0.00019891 -0.869284 -0.377352 -0.319298
-0.08240428 0.07857786 -0.00019891 -0.906550 -0.256295 -0.335380
-0.08262557 0.07937932 -0.00019891 -0.906550 -0.256295 -0.335380
-0.08301294 0.08071736 -0.00019891 -0.893708 -0.366079 -0.259368
-0.08374232 0.08207083 -0.00019891 -0.795044 -0.583837 -0.164440
-0.08471040 0.08339344 -0.00019891 -0.799337 -0.570955 -0.187273
-0.08373142 0.08205540 -0.00019891 -0.865761 -0.466179 -0.182032
-0.08508036 0.08399286 -0.00019891 -0.843962 -0.476356 -0.246602
-0.08545785 0.08473147 -0.00019891 -0.898950 -0.297675 -0.321371
-0.08586580 0.08606951 -0.00019891 -0.901446 -0.186058 -0.390867
-0.06367174 0.06136417 -0.00019891 -0.354770 -0.916134 -0.186646
-0.08599370 0.08740755 -0.00019891 -0.906275 -0.019730 -0.422227
-0.06233370 0.06089377 -0.00019891 -0.284793 -0.932941 -0.220258
-0.06099566 0.06058008 -0.00019891 -0.184652 -0.945144 -0.269455
-0.06130991 0.06064678 -0.00019891 -0.213013 -0.944128 -0.251493
-0.07571408 0.07020372 -0.00019891 -0.672601 -0.694757 -0.254797
-0.07690168 0.07135110 -0.00019891 -0.646738 -0.736263 -0.199115
-0.06768586 0.06313358 -0.00019891 -0.459151 -0.862965 -0.210881
-0.07705212 0.07149404 -0.00019891 -0.709116 -0.691050 -0.140017
-0.06798719 0.06332286 -0.00019891 -0.522297 -0.822503 -0.225154
-0.07820542 0.07268913 -0.00019891 -0.705432 -0.699492 -0.114354
-0.06902389 0.06403761 -0.00019891 -0.567592 -0.765849 -0.302183
-0.06981367 0.06466090 -0.00019891 -0.587182 -0.744836 -0.316917
-0.07303801 0.06752209 -0.00019891 -0.602118 -0.618984 -0.504295
-0.07421163 0.06867501 -0.00019891 -0.585002 -0.655403 -0.477724
-0.06634782 0.06245275 -0.00019891 -0.404212 -0.899048 -0.168302
-0.07437605 0.06884067 -0.00019891 -0.666982 -0.640632 -0.380427
-0.07551116 0.07001305 -0.00019891 -0.632040 -0.694101 -0.344601
-0.05831959 0.03340231 -0.00019891 0.001003 -0.999685 0.025067
-0.07839017 0.07289378 -0.00019891 -0.735815 -0.671704 -0.085966
-0.07944090 0.07402717 -0.00019891 -0.722599 -0.674122 -0.153003
-0.05698155 0.03343838 -0.00019891 0.030143 -0.998883 0.036380
-0.07972820 0.07435076 -0.00019891 -0.757304 -0.637335 -0.142463
-0.05564351 0.03348020 -0.00019891 0.009150 -0.999395 0.033550
-0.08061843 0.07536521 -0.00019891 -0.732429 -0.638327 -0.236824
-0.05430547 0.03346079 -0.00019891 0.013244 -0.999413 0.031582
-0.05296743 0.03352252 -0.00019891 0.019205 -0.999668 0.017183
-0.05162939 0.03352878 -0.00019891 0.023109 -0.999720 -0.005024
-0.05029136 0.03357753 -0.00019891 0.025319 -0.999593 -0.013166
-0.04895332 0.03359326 -0.00019891 0.012934 -0.999904 -0.004975
-0.04761528 0.03361908 -0.00019891 0.029133 -0.999575 0.001005
-0.04627724 0.03366675 -0.00019891 0.025269 -0.999639 -0.009097
-0.04493921 0.03368766 -0.00019891 0.019206 -0.999701 -0.015162
-0.06099566 0.04592836 -0.00117616 -0.393087 0.852983 -0.343369
-0.04092509 0.03388602 -0.00049471 0.220145 -0.960993 -0.167416
-0.08240428 0.07937932 -0.00079620 -0.906239 -0.264991 -0.329408
-0.03824902 0.03522406 -0.00137790 0.519020 -0.754790 -0.401136
-0.07169997 0.06733698 -0.00151573 -0.603503 -0.627038 -0.492552
-0.08508036 0.08473147 -0.00141124 -0.871761 -0.412462 -0.264399
-0.06500978 0.06198482 -0.00050675 -0.384678 -0.913435 -0.132889
-0.06902389 0.04057621 -0.00092547 -0.651809 0.457439 -0.604892
-0.03423490 0.03790013 -0.00059664 0.385563 -0.883645 -0.265543
-0.06099566 0.06064678 -0.00041491 -0.177589 -0.940259 -0.290475
-0.06768586 0.04191425 -0.00112715 -0.576927 0.603997 -0.549857
-0.05965763 0.06064678 -0.00122322 -0.180896 -0.937621 -0.296890
-0.06634782 0.04325229 -0.00099316 -0.559920 0.680261 -0.473007
-0.08508036 0.09811186 -0.00125816 -0.892731 0.178546 -0.413705
0.05139956 0.06466090 -0.00151595 0.293873 0.548034 -0.783133
0.04470937 0.08874559 -0.00095580 0.963135 0.066727 -0.260613
-0.08508036 0.09944990 -0.00065948 -0.897800 0.162322 -0.409397
0.05006152 0.06599894 -0.00069204 -0.012469 0.635901 -0.771670
-0.08106624 0.11015420 -0.00129110 -0.719846 0.276127 -0.636848
0.00189214 0.03790013 -0.00060378 -0.525602 -0.763181 -0.375895
-0.06768586 0.06332286 -0.00082600 -0.507811 -0.825772 -0.245416
-0.08106624 0.11149224 -0.00079218 -0.672974 -0.089049 -0.734286
0.00323018 0.03656209 -0.00069546 -0.630614 -0.610434 -0.479266
-0.06902389 0.06466090 -0.00146598 -0.605058 -0.697383 -0.384138
0.04337133 0.06466090 -0.00134384 0.389695 0.396006 -0.831455
0.04470937 0.09008363 -0.00044142 0.954490 0.116850 -0.274399
-0.05698155 0.04994248 -0.00113528 -0.908090 0.225206 -0.353065
0.04470937 0.06466090 -0.00100844 0.130971 0.548903 -0.825562
-0.05698155 0.05128052 -0.00030375 -0.913773 0.211535 -0.346802
0.04604740 0.06466090 -0.00118495 -0.119419 0.602994 -0.788757
-0.07839017 0.15163338 -0.00085229 -0.802866 0.419936 -0.423154
0.04337133 0.09409774 -0.00107750 0.887773 0.298929 -0.350002
0.00456822 0.03522406 -0.00073263 -0.543430 -0.706293 -0.453689
-0.08240428 0.11283028 -0.00042024 -0.568125 -0.484330 -0.665326
0.05139956 0.06599894 -0.00057840 0.170787 0.575840 -0.799525
-0.08374232 0.10480205 -0.00082047 -0.850303 0.317508 -0.419730
-0.03557294 0.12621066 -0.00141220 0.361997 0.892331 -0.269636
-0.08106624 0.11283028 -0.00149081 -0.575510 -0.382033 -0.723076
0.04203328 0.09944990 -0.00061029 0.898117 0.289476 -0.331042
-0.05965763 0.14895731 -0.00133517 -0.019099 0.345052 -0.938389
0.05273759 0.06466090 -0.00100376 0.385258 0.469080 -0.794695
0.04738544 0.06466090 -0.00145620 -0.145441 0.622249 -0.769190
-0.06099566 0.15029535 -0.00090492 0.299717 0.537587 -0.788144
-0.08240428 0.10747813 -0.00116576 -0.839231 0.309846 -0.446863
-0.08374232 0.11416832 -0.00029806 -0.603572 -0.456441 -0.653730
-0.05965763 0.15029535 -0.00079881 -0.046563 0.403104 -0.913969
-0.08240428 0.10881617 -0.00033124 -0.832487 0.290981 -0.471483
-0.06233370 0.15163338 -0.00067510 0.499232 0.579915 -0.643790
0.03668113 0.10881617 -0.00133453 0.819413 0.475228 -0.320502
-0.08374232 0.11550636 -0.00113153 -0.636036 -0.373075 -0.675480
-0.05296743 0.13959104 -0.00034420 0.716374 0.079920 -0.693124
0.04337133 0.06599894 -0.00077499 0.642644 0.272685 -0.715997
-0.08240428 0.11416832 -0.00150062 -0.575446 -0.518071 -0.632822
-0.05965763 0.15163338 -0.00025713 -0.296820 0.360102 -0.884434
-0.02353059 0.12487262 -0.00060311 -0.187777 0.944368 -0.270015
0.05407563 0.06332286 -0.00082152 0.596900 0.364682 -0.714645
-0.05296743 0.14092909 -0.00037187 0.654266 0.032362 -0.755572
0.02196272 0.03522406 -0.00056554 0.360822 -0.867509 -0.342397
0.05407563 0.06466090 -0.00021628 0.472648 0.363698 -0.802700
-0.03289686 0.15297142 -0.00153462 0.524851 -0.738740 0.422842
0.04337133 0.06733698 -0.00058214 0.883251 -0.006641 -0.468854
-0.02219255 0.12487262 -0.00152228 -0.176986 0.949782 -0.258049
-0.08641839 0.11818244 -0.00023587 -0.617624 -0.460289 -0.637710
-0.08508036 0.13156283 -0.00115202 -0.707304 0.307734 -0.636413
-0.05430547 0.14226712 -0.00134053 0.575215 0.069939 -0.815007
0.04738544 0.06599894 -0.00036961 -0.126409 0.623124 -0.771840
-0.04895332 0.13022478 -0.00086090 0.664699 0.473828 -0.577635
-0.08508036 0.13290086 -0.00050968 -0.697963 0.301430 -0.649606
-0.05296743 0.14226712 -0.00044985 0.530341 -0.009495 -0.847731
0.04337133 0.06867501 -0.00068473 0.907376 -0.083484 -0.411946
0.04069525 0.10212597 -0.00133702 0.824909 0.422746 -0.375247
-0.04761528 0.12888674 -0.00105914 0.457154 0.789924 -0.408693
-0.08374232 0.13423890 -0.00122925 -0.662715 0.287230 -0.691598
0.02330075 0.03656209 -0.00145498 0.265917 -0.778869 -0.568024
-0.07169997 0.15698555 -0.00121222 -0.016449 0.940146 0.340376
-0.08641839 0.11952047 -0.00120428 -0.627555 -0.446819 -0.637595
-0.05430547 0.14360517 -0.00115191 0.378186 0.001273 -0.925729
-0.08374232 0.13557693 -0.00067844 -0.654680 0.286523 -0.699499
-0.08775643 0.12085851 -0.00025693 -0.797052 -0.097628 -0.595967
0.04337133 0.07001305 -0.00111587 0.929620 -0.130449 -0.344660
-0.01684040 0.12621066 -0.00080679 -0.257571 0.902233 -0.345880
0.04738544 0.04592836 -0.00034010 0.487277 -0.688216 -0.537512
-0.05564351 0.14494321 -0.00147403 0.194740 -0.017492 -0.980699
-0.08240428 0.13691497 -0.00136328 -0.669471 0.308118 -0.675923
-0.05430547 0.14494321 -0.00119155 0.173342 -0.128447 -0.976450
-0.08508036 0.11684439 -0.00054702 -0.609549 -0.398107 -0.685537
-0.03691097 0.16367573 -0.00098147 0.730182 -0.001380 0.683251
-0.08240428 0.13825300 -0.00074984 -0.741804 0.250418 -0.622107
-0.08508036 0.11818244 -0.00140972 -0.589268 -0.442368 -0.676072
0.04872347 0.04726640 -0.00065355 0.544587 -0.649121 -0.531099
-0.05430547 0.14628124 -0.00144604 0.037193 -0.217161 -0.975427
0.04470937 0.07670325 -0.00070682 0.946577 -0.107535 -0.304020
0.05006152 0.04860444 -0.00082687 0.599482 -0.582595 -0.548821
-0.08106624 0.14226712 -0.00124159 -0.837733 0.184331 -0.514029
-0.05296743 0.14360517 -0.00055273 0.435934 -0.148189 -0.887694
-0.03691097 0.16501379 -0.00071616 0.795897 -0.207025 0.568936
-0.05029136 0.13290086 -0.00110335 0.752366 0.376999 -0.540202
-0.08775643 0.12219655 -0.00044699 -0.821795 -0.034763 -0.568721
-0.08106624 0.14360517 -0.00081553 -0.824640 0.118223 -0.553166
0.02597682 0.12085851 -0.00054286 0.575160 0.768465 -0.280450
-0.05162939 0.13557693 -0.00089018 0.705290 0.407978 -0.579758
-0.08106624 0.14494321 -0.00066663 -0.782029 0.094659 -0.616012
0.05139956 0.04994248 -0.00068555 0.631142 -0.506597 -0.587383
-0.05296743 0.13691497 -0.00134584 0.652879 0.348529 -0.672515
0.00858233 0.12888674 -0.00149497 0.183596 0.897741 -0.400442
-0.08775643 0.12353459 -0.00028686 -0.841510 0.045901 -0.538288
0.05273759 0.05128052 -0.00036795 0.668063 -0.438156 -0.601424
0.00992037 0.12888674 -0.00087407 0.200323 0.893409 -0.402107
-0.03557294 0.16768986 -0.00105892 0.795730 -0.323714 0.511882
-0.08106624 0.14628124 -0.00043058 -0.739276 0.159392 -0.654267
0.04470937 0.07804129 -0.00102111 0.945367 -0.031809 -0.324453
-0.03557294 0.16902789 -0.00028419 0.792017 -0.299982 0.531715
-0.08775643 0.12487262 -0.00023481 -0.833302 0.023415 -0.552321
-0.05296743 0.13825300 -0.00067781 0.687090 0.226943 -0.690220
0.05273759 0.05261856 -0.00134379 0.672217 -0.435356 -0.598823
0.04470937 0.07937932 -0.00097882 0.940543 0.064098 -0.333572
-0.04627724 0.16902789 -0.00132336 -0.553935 0.805583 0.210219
-0.05296743 0.14494321 -0.00089161 0.233005 -0.334311 -0.913206
0.02463879 0.03656209 -0.00083439 0.244658 -0.796307 -0.553207
-0.03423490 0.17036593 -0.00144850 0.746919 -0.226103 0.625291
0.01661056 0.12621066 -0.00144559 0.390606 0.817880 -0.422492
-0.07972820 0.14761928 -0.00131537 -0.726041 0.290096 -0.623465
0.04470937 0.08071736 -0.00054014 0.929440 0.127302 -0.346316
-0.05162939 0.14494321 -0.00057650 0.148363 -0.606939 -0.780778
-0.04360117 0.17036593 -0.00069445 -0.420768 0.833656 0.357731
-0.07972820 0.14895731 -0.00066613 -0.734181 0.300420 -0.608872
0.02597682 0.03656209 -0.00028837 0.219378 -0.811545 -0.541542
-0.08641839 0.12888674 -0.00095142 -0.759801 0.330699 -0.559768
-0.05296743 0.14628124 -0.00143062 0.042277 -0.326686 -0.944187
0.02731487 0.11952047 -0.00149706 0.580443 0.761732 -0.287836
-0.04092509 0.17170396 -0.00095571 -0.338014 0.810916 0.477663
0.04470937 0.08606951 -0.00060780 0.972528 -0.122354 -0.198037
0.05407563 0.05395659 -0.00046221 0.773938 -0.287644 -0.564164
-0.04895332 0.14628124 -0.00153375 0.106552 -0.810086 -0.576548
0.04470937 0.08740755 -0.00106224 0.972393 -0.025241 -0.231980
-0.03824902 0.17304200 -0.00141046 -0.263491 0.771540 0.579049
0.05407563 0.05529463 -0.00113242 0.775716 -0.270158 -0.570333
-0.05831959 0.14895731 -0.00140301 -0.075630 0.278164 -0.957551
-0.03423490 0.17170396 -0.00099161 0.636512 0.026580 0.770809
-0.03155882 0.15430948 -0.00091587 0.529740 -0.654186 0.539830
-0.05831959 0.15029535 -0.00105983 -0.233855 0.239390 -0.942340
0.05541368 0.05797071 -0.00043732 0.790999 -0.167879 -0.588334
-0.05698155 0.15029535 -0.00150661 -0.315399 0.161142 -0.935177
-0.03022078 0.15564752 -0.00051031 0.435356 -0.672217 0.598823
0.05541368 0.05930874 -0.00077214 0.794268 -0.035021 -0.606557
-0.02888274 0.15564752 -0.00153352 0.115489 -0.177579 0.977307
-0.05831959 0.15163338 -0.00069953 -0.340797 0.267032 -0.901416
-0.03691097 0.17304200 -0.00081572 -0.178502 0.758254 0.627047
-0.05698155 0.15163338 -0.00127044 -0.374600 0.185147 -0.908513
-0.03557294 0.17304200 -0.00066531 0.154070 0.566916 0.809239
-0.02754471 0.15698555 -0.00104350 0.441234 -0.584426 0.680998
0.05541368 0.06064678 -0.00059008 0.787800 0.138498 -0.600158
-0.03423490 0.17304200 -0.00111815 0.414195 0.321118 0.851660
-0.05831959 0.15297142 -0.00028753 -0.459388 0.268872 -0.846564
-0.03423490 0.16099966 -0.00037335 0.171120 0.792000 0.586050
-0.05698155 0.15297142 -0.00101728 -0.469172 0.205356 -0.858899
-0.03289686 0.16099966 -0.00068767 0.132801 0.844966 0.518070
-0.03691097 0.16233769 -0.00059632 0.496280 0.395397 0.772895
0.04872347 0.06599894 -0.00056748 -0.088878 0.630890 -0.770765
-0.03557294 0.16233769 -0.00129522 0.300342 0.627989 0.717931
-0.04761528 0.14628124 -0.00140967 0.124036 -0.839064 -0.529705
-0.01282629 0.12754869 -0.00062259 -0.253012 0.915181 -0.313735
-0.04627724 0.14628124 -0.00094413 0.240780 -0.861659 -0.446730
-0.03155882 0.16099966 -0.00095105 0.079042 0.928408 0.363057
-0.03022078 0.16099966 -0.00115910 0.031298 0.955230 0.294206
-0.02888274 0.16099966 -0.00115417 0.119938 0.896004 0.427542
-0.05698155 0.15430948 -0.00071770 -0.577495 0.190467 -0.793865
-0.02754471 0.16099966 -0.00146272 0.127663 0.823205 0.553205
-0.00747413 0.12888674 -0.00033598 -0.162259 0.942195 -0.293157
-0.05698155 0.15564752 -0.00027177 -0.626403 0.237060 -0.742578
-0.00613609 0.12888674 -0.00106024 -0.136024 0.944087 -0.300330
-0.05564351 0.15564752 -0.00143060 -0.648919 0.258616 -0.715557
-0.02620666 0.15832359 -0.00091323 0.491531 -0.353838 0.795736
-0.00479805 0.12888674 -0.00151984 -0.105002 0.945022 -0.309691
-0.05564351 0.15698555 -0.00098423 -0.700079 0.275885 -0.658617
-0.02620666 0.15966162 -0.00067154 0.426422 0.259495 0.866502
-0.05564351 0.15832359 -0.00031075 -0.711821 0.314751 -0.627887
-0.02486863 0.15966162 -0.00141694 0.449639 -0.108534 0.886592
-0.05430547 0.15966162 -0.00135447 -0.743040 0.349570 -0.570694
-0.05430547 0.16099966 -0.00046650 -0.732558 0.438212 -0.520893
-0.05296743 0.16233769 -0.00123630 -0.746472 0.574832 -0.335184
0.02865291 0.03790013 -0.00128222 0.194212 -0.793668 -0.576518
0.02999094 0.03790013 -0.00083555 0.217465 -0.797373 -0.562943
0.03132898 0.03790013 -0.00024395 0.243863 -0.799933 -0.548304
0.03400506 0.03923817 -0.00117915 0.232738 -0.812271 -0.534835
0.03534310 0.03923817 -0.00053211 0.259659 -0.813184 -0.520873
0.03801918 0.04057621 -0.00105795 0.383355 -0.758554 -0.526910
0.04069525 0.04191425 -0.00051836 0.514392 -0.688649 -0.511041
0.04203328 0.04325229 -0.00097939 0.504017 -0.691558 -0.517412
0.04470937 0.04459032 -0.00074484 0.373685 -0.781342 -0.499865
0.02263173 0.12374746 0.00047012 0.550020 0.776405 -0.307692
-0.07199985 0.03656209 0.00047012 -0.898989 0.092808 -0.428024
-0.07182362 0.03723111 0.00047012 -0.873938 0.267162 -0.406026
0.02199189 0.12420361 0.00047012 0.553473 0.781840 -0.287045
-0.07169997 0.03754663 0.00047012 -0.831098 0.314596 -0.458591
0.02293308 0.12353459 0.00047012 0.548058 0.774951 -0.314774
-0.07155588 0.03790013 0.00047012 -0.721597 0.476088 -0.502630
0.02196272 0.12422283 0.00047012 0.517878 0.804363 -0.291208
-0.07103095 0.03843591 0.00047012 -0.681121 0.563975 -0.466911
-0.07093121 0.03856915 0.00047012 -0.848704 0.216336 -0.482597
0.02094029 0.12487262 0.00047012 0.499367 0.806913 -0.315473
-0.07082687 0.03923817 0.00047012 -0.821199 0.349682 -0.450948
-0.07041419 0.03990719 0.00047012 -0.787186 0.483303 -0.383087
-0.07036193 0.03999601 0.00047012 -0.786423 0.458882 -0.413480
0.02062467 0.12506692 0.00047012 0.464464 0.823440 -0.325912
0.04069525 0.10357487 0.00047012 0.810606 0.486998 -0.325194
0.04034512 0.10413303 0.00047012 0.783764 0.520906 -0.338188
0.04002623 0.10457497 0.00047012 0.727347 0.583512 -0.361222
0.03983113 0.10480205 0.00047012 0.699638 0.583859 -0.411844
0.03935722 0.10535701 0.00047012 0.684711 0.605132 -0.406185
0.03926177 0.10547107 0.00047012 0.736107 0.501214 -0.454897
0.03880720 0.10614009 0.00047012 0.753157 0.510309 -0.415139
0.03868820 0.10636087 0.00047012 0.810559 0.420468 -0.407678
0.03846729 0.10680911 0.00047012 0.829200 0.412231 -0.377483
0.03813082 0.10747813 0.00047012 0.810770 0.460339 -0.361581
-0.04226313 0.12818325 0.00047012 0.099450 0.978537 -0.180483
-0.04253099 0.12821773 0.00047012 0.112491 0.977803 -0.176771
-0.04360117 0.12832537 0.00047012 0.143235 0.966514 -0.212917
-0.04293215 0.12826689 0.00047012 0.099102 0.980010 -0.172511
-0.04159411 0.12812290 0.00047012 0.086776 0.978984 -0.184553
-0.04092509 0.12807490 0.00047012 0.117519 0.978503 -0.169475
0.01259644 0.12873697 0.00047012 0.323499 0.876334 -0.356913
0.01326547 0.12849402 0.00047012 0.314641 0.886715 -0.338728
0.01393449 0.12824699 0.00047012 0.322472 0.879606 -0.349723
0.01460350 0.12801495 0.00047012 0.330488 0.865418 -0.376603
0.01401744 0.12821773 0.00047012 0.305686 0.883929 -0.353873
0.01527252 0.12775292 0.00047012 0.385390 0.838420 -0.385390
0.01995566 0.12543342 0.00047012 0.450272 0.823128 -0.345998
0.01975525 0.12554164 0.00047012 0.423189 0.835365 -0.350822
0.01928664 0.12577224 0.00047012 0.436180 0.829845 -0.348000
0.02330075 0.12327257 0.00047012 0.562128 0.767121 -0.309091
0.02396977 0.12278389 0.00047012 0.578232 0.757629 -0.302731
0.02385521 0.12286557 0.00047012 0.555791 0.770419 -0.312332
0.02463879 0.12227200 0.00047012 0.601355 0.739265 -0.303083
0.02129369 0.12465255 0.00047012 0.509540 0.801613 -0.312708
0.02263173 0.12353459 -0.00004815 0.549655 0.770799 -0.322101
-0.07169997 0.03656209 -0.00004160 -0.844333 0.117309 -0.522820
0.02196272 0.12420361 0.00041965 0.525914 0.784875 -0.327697
-0.07169997 0.03723111 0.00025199 -0.822519 0.252487 -0.509621
0.02062467 0.12487262 -0.00001070 0.477663 0.810916 -0.338014
-0.07036193 0.03990719 0.00038119 -0.761005 0.436964 -0.479515
0.04069525 0.10346401 0.00031031 0.828490 0.451189 -0.331711
0.03868820 0.10614009 0.00025234 0.772222 0.465292 -0.432640
0.03801918 0.10747813 0.00024083 0.807866 0.459124 -0.369539
-0.04360117 0.12821773 -0.00003472 0.123614 0.969797 -0.210271
-0.04293215 0.12821773 0.00026047 0.091273 0.971491 -0.218804
0.01527252 0.12754869 0.00007000 0.394984 0.823280 -0.407674
0.01393449 0.12821773 0.00039756 0.347877 0.876528 -0.332686
0.01928664 0.12554164 -0.00007578 0.423987 0.830636 -0.360941
0.02463879 0.12219655 0.00029715 0.587102 0.753475 -0.295951
0.02263173 0.12399881 0.00113913 0.537587 0.788144 -0.299717
-0.07226533 0.03656209 0.00113913 -0.944361 0.156261 -0.289423
0.02233601 0.12420361 0.00113913 0.549395 0.783720 -0.289739
-0.07211218 0.03723111 0.00113913 -0.922337 0.310306 -0.230227
-0.07184856 0.03790013 0.00113913 -0.912361 0.362366 -0.190493
0.02330075 0.12354693 0.00113913 0.536751 0.790084 -0.296084
-0.07169997 0.03819893 0.00113913 -0.818044 0.506408 -0.272681
0.02196272 0.12446517 0.00113913 0.530881 0.793944 -0.296342
-0.07150318 0.03856915 0.00113913 -0.834349 0.497548 -0.237292
-0.07106332 0.03923817 0.00113913 -0.859782 0.509855 0.028705
0.02062467 0.12531254 0.00113913 0.488905 0.819034 -0.300260
-0.07103095 0.03929483 0.00113913 -0.905512 0.419495 -0.063807
-0.07073172 0.03990719 0.00113913 -0.859633 0.439706 -0.260172
-0.07037172 0.04057621 0.00113913 -0.861494 0.467327 -0.198577
0.02129369 0.12490468 0.00113913 0.497311 0.809907 -0.311017
0.02134369 0.12487262 0.00113913 0.521173 0.796809 -0.305734
0.04069525 0.10401908 0.00113913 0.796267 0.495063 -0.347666
0.02331668 0.12353459 0.00113913 0.587995 0.756904 -0.285233
0.04060358 0.10413303 0.00113913 0.777960 0.537354 -0.325620
0.04016149 0.10480205 0.00113913 0.801715 0.513920 -0.305189
0.03935722 0.10587996 0.00113913 0.716304 0.560801 -0.415224
0.03915687 0.10614009 0.00113913 0.782358 0.474598 -0.403327
0.03877015 0.10680911 0.00113913 0.798651 0.505334 -0.326793
0.03868820 0.10696360 0.00113913 0.847639 0.443119 -0.291810
0.03842020 0.10747813 0.00113913 0.826735 0.465921 -0.315320
0.04002623 0.10503586 0.00113913 0.801779 0.536082 -0.264134
0.03971544 0.10547107 0.00113913 0.732237 0.568426 -0.375128
-0.04360117 0.12847114 0.00113913 0.158537 0.967980 -0.194627
-0.04293215 0.12837330 0.00113913 0.114752 0.978476 -0.171511
-0.04226313 0.12830999 0.00113913 0.095837 0.981424 -0.166199
